ply
format ascii 1.0
element vertex 1158
property float x
property float y
property float z
property uchar red
property uchar green
property uchar blue
element face 0
property list uint8 int32 vertex_index
end_header
140.00000 658.00000 280.00000 66 65 101
132.00000 650.00000 288.00000 106 81 91
132.00000 658.00000 288.00000 93 73 94
132.00000 658.00000 296.00000 88 69 97
140.00000 650.00000 288.00000 93 75 95
140.00000 658.00000 288.00000 83 70 97
140.00000 666.00000 272.00000 83 84 118
140.00000 666.00000 280.00000 76 70 106
140.00000 674.00000 272.00000 82 83 117
140.00000 674.00000 280.00000 81 71 108
132.00000 666.00000 288.00000 85 68 96
132.00000 666.00000 296.00000 87 68 96
132.00000 674.00000 296.00000 86 65 98
140.00000 666.00000 288.00000 82 65 99
140.00000 666.00000 296.00000 83 66 100
140.00000 674.00000 288.00000 77 62 101
140.00000 674.00000 296.00000 82 62 99
116.00000 706.00000 240.00000 106 120 141
124.00000 706.00000 240.00000 108 120 141
140.00000 682.00000 240.00000 98 107 135
140.00000 690.00000 240.00000 95 103 129
140.00000 690.00000 248.00000 93 96 128
140.00000 690.00000 264.00000 78 72 108
132.00000 698.00000 240.00000 101 110 134
132.00000 706.00000 240.00000 104 112 136
132.00000 706.00000 248.00000 99 107 131
140.00000 698.00000 240.00000 95 103 129
140.00000 698.00000 248.00000 96 101 128
140.00000 706.00000 240.00000 98 106 130
140.00000 706.00000 248.00000 98 103 128
140.00000 698.00000 256.00000 92 97 124
140.00000 698.00000 264.00000 86 87 117
140.00000 706.00000 256.00000 92 97 124
140.00000 706.00000 264.00000 86 91 118
140.00000 690.00000 272.00000 79 73 109
140.00000 690.00000 280.00000 75 65 105
140.00000 682.00000 288.00000 76 61 102
140.00000 682.00000 296.00000 75 57 103
140.00000 690.00000 288.00000 82 71 109
140.00000 690.00000 296.00000 79 65 106
140.00000 698.00000 272.00000 83 80 113
140.00000 698.00000 280.00000 82 76 112
140.00000 706.00000 272.00000 85 85 115
140.00000 706.00000 280.00000 86 83 114
140.00000 698.00000 288.00000 90 83 117
140.00000 698.00000 296.00000 98 87 120
140.00000 706.00000 288.00000 96 89 121
140.00000 706.00000 296.00000 111 101 129
84.00000 714.00000 192.00000 130 136 155
84.00000 722.00000 192.00000 133 138 155
84.00000 722.00000 200.00000 139 148 162
92.00000 714.00000 192.00000 131 141 160
92.00000 722.00000 192.00000 140 150 164
92.00000 722.00000 200.00000 141 151 165
84.00000 730.00000 200.00000 143 154 163
84.00000 738.00000 200.00000 163 173 178
92.00000 730.00000 200.00000 146 162 170
92.00000 738.00000 200.00000 155 181 181
100.00000 714.00000 192.00000 137 152 167
100.00000 722.00000 192.00000 143 160 170
100.00000 722.00000 200.00000 144 164 171
108.00000 714.00000 192.00000 138 155 169
108.00000 722.00000 192.00000 144 165 174
108.00000 722.00000 200.00000 152 177 179
100.00000 730.00000 200.00000 154 182 182
100.00000 738.00000 200.00000 160 192 187
108.00000 730.00000 192.00000 158 189 184
108.00000 730.00000 200.00000 159 191 188
108.00000 738.00000 200.00000 171 214 200
84.00000 738.00000 208.00000 188 184 191
92.00000 738.00000 208.00000 175 175 175
100.00000 738.00000 208.00000 165 186 179
108.00000 738.00000 208.00000 172 184 175
108.00000 746.00000 200.00000 170 177 168
84.00000 746.00000 208.00000 184 167 171
84.00000 746.00000 216.00000 196 164 171
84.00000 754.00000 216.00000 183 128 134
92.00000 746.00000 208.00000 169 155 154
92.00000 746.00000 216.00000 182 144 146
92.00000 754.00000 208.00000 177 129 128
92.00000 754.00000 216.00000 181 111 113
84.00000 754.00000 224.00000 171 111 118
92.00000 754.00000 224.00000 177 110 116
92.00000 762.00000 216.00000 182 102 104
84.00000 762.00000 224.00000 173 110 118
84.00000 762.00000 232.00000 176 109 118
84.00000 770.00000 224.00000 171 111 118
84.00000 770.00000 232.00000 181 112 121
92.00000 762.00000 224.00000 179 109 113
92.00000 770.00000 224.00000 182 111 120
92.00000 770.00000 232.00000 193 114 125
100.00000 746.00000 208.00000 174 153 148
100.00000 754.00000 208.00000 181 121 119
100.00000 754.00000 216.00000 184 104 102
108.00000 746.00000 208.00000 179 152 144
108.00000 754.00000 208.00000 181 125 122
108.00000 754.00000 216.00000 185 103 100
100.00000 762.00000 216.00000 187 87 86
100.00000 770.00000 216.00000 190 68 68
108.00000 762.00000 208.00000 186 78 77
108.00000 762.00000 216.00000 189 79 78
108.00000 770.00000 216.00000 195 47 46
100.00000 762.00000 224.00000 185 88 90
100.00000 770.00000 224.00000 188 70 71
108.00000 770.00000 224.00000 191 61 61
116.00000 714.00000 192.00000 140 151 160
116.00000 722.00000 192.00000 146 157 162
124.00000 714.00000 192.00000 138 141 150
124.00000 722.00000 192.00000 141 147 152
124.00000 722.00000 200.00000 142 142 142
116.00000 730.00000 192.00000 149 163 162
116.00000 730.00000 200.00000 156 178 175
116.00000 738.00000 200.00000 155 163 157
124.00000 730.00000 192.00000 149 153 150
124.00000 730.00000 200.00000 148 158 156
124.00000 738.00000 200.00000 147 145 139
132.00000 714.00000 192.00000 139 135 142
132.00000 722.00000 192.00000 142 131 136
132.00000 722.00000 200.00000 141 121 123
140.00000 714.00000 192.00000 140 129 138
140.00000 714.00000 200.00000 142 125 131
140.00000 722.00000 192.00000 141 127 132
140.00000 722.00000 200.00000 143 119 122
132.00000 730.00000 200.00000 137 113 114
132.00000 738.00000 200.00000 134 100 98
140.00000 730.00000 200.00000 135 103 104
140.00000 738.00000 200.00000 126 78 77
116.00000 746.00000 200.00000 160 167 158
124.00000 746.00000 200.00000 151 131 126
132.00000 746.00000 200.00000 141 110 105
140.00000 746.00000 200.00000 133 94 91
116.00000 746.00000 208.00000 163 133 128
116.00000 754.00000 208.00000 177 114 108
124.00000 746.00000 208.00000 150 119 114
124.00000 754.00000 208.00000 158 100 95
116.00000 762.00000 208.00000 179 95 93
116.00000 762.00000 216.00000 184 80 78
116.00000 770.00000 216.00000 181 76 74
124.00000 762.00000 208.00000 172 92 89
124.00000 762.00000 216.00000 175 84 81
124.00000 770.00000 216.00000 173 79 77
116.00000 770.00000 224.00000 188 66 66
132.00000 746.00000 208.00000 144 100 96
132.00000 754.00000 208.00000 150 88 84
140.00000 746.00000 208.00000 132 93 90
140.00000 754.00000 208.00000 139 90 85
132.00000 762.00000 208.00000 160 90 86
132.00000 762.00000 216.00000 157 91 86
132.00000 770.00000 216.00000 161 85 82
140.00000 762.00000 208.00000 137 88 83
140.00000 762.00000 216.00000 147 88 83
140.00000 770.00000 208.00000 145 87 82
140.00000 770.00000 216.00000 151 85 82
84.00000 714.00000 248.00000 84 118 140
92.00000 714.00000 248.00000 78 110 131
84.00000 714.00000 256.00000 80 114 136
84.00000 722.00000 256.00000 79 115 137
92.00000 714.00000 256.00000 75 109 131
92.00000 722.00000 256.00000 74 110 132
92.00000 722.00000 264.00000 66 106 129
84.00000 730.00000 256.00000 81 118 142
84.00000 730.00000 264.00000 75 117 142
84.00000 738.00000 256.00000 88 124 148
84.00000 738.00000 264.00000 92 124 149
92.00000 730.00000 256.00000 74 106 129
92.00000 730.00000 264.00000 75 107 130
92.00000 738.00000 264.00000 81 109 133
100.00000 714.00000 240.00000 85 109 129
100.00000 714.00000 248.00000 75 103 125
108.00000 714.00000 240.00000 89 109 130
108.00000 714.00000 248.00000 81 105 125
108.00000 722.00000 248.00000 74 100 120
100.00000 714.00000 256.00000 70 100 121
100.00000 722.00000 256.00000 66 98 119
100.00000 722.00000 264.00000 65 97 118
108.00000 714.00000 256.00000 66 96 117
108.00000 722.00000 256.00000 68 98 119
108.00000 722.00000 264.00000 57 89 110
100.00000 730.00000 264.00000 71 105 125
100.00000 738.00000 264.00000 73 99 117
108.00000 730.00000 256.00000 65 95 114
108.00000 730.00000 264.00000 66 99 117
108.00000 738.00000 264.00000 64 97 111
100.00000 738.00000 272.00000 81 97 115
108.00000 738.00000 272.00000 78 94 111
84.00000 746.00000 264.00000 122 148 172
84.00000 754.00000 256.00000 211 169 193
84.00000 754.00000 264.00000 173 149 173
92.00000 746.00000 264.00000 98 116 140
84.00000 762.00000 240.00000 208 144 159
84.00000 762.00000 248.00000 243 181 202
84.00000 770.00000 240.00000 202 142 158
84.00000 770.00000 248.00000 213 149 170
92.00000 770.00000 240.00000 203 136 149
84.00000 762.00000 256.00000 198 141 166
84.00000 762.00000 264.00000 186 132 158
84.00000 770.00000 256.00000 193 122 146
84.00000 770.00000 264.00000 173 97 124
92.00000 762.00000 264.00000 151 76 101
92.00000 770.00000 264.00000 141 38 69
84.00000 746.00000 272.00000 126 126 148
84.00000 754.00000 272.00000 167 137 160
92.00000 746.00000 272.00000 91 93 113
92.00000 754.00000 272.00000 129 97 118
84.00000 762.00000 272.00000 160 110 133
92.00000 762.00000 272.00000 124 60 81
92.00000 770.00000 272.00000 129 53 75
100.00000 746.00000 272.00000 97 85 102
100.00000 754.00000 272.00000 109 76 91
100.00000 754.00000 280.00000 109 76 86
108.00000 746.00000 272.00000 87 88 104
108.00000 746.00000 280.00000 92 89 96
108.00000 754.00000 272.00000 99 82 93
108.00000 754.00000 280.00000 103 83 85
100.00000 762.00000 272.00000 122 65 82
100.00000 762.00000 280.00000 118 71 84
100.00000 770.00000 272.00000 126 62 79
100.00000 770.00000 280.00000 121 70 82
108.00000 762.00000 280.00000 113 77 83
108.00000 770.00000 280.00000 118 78 83
116.00000 714.00000 240.00000 89 109 128
116.00000 714.00000 248.00000 79 103 123
116.00000 722.00000 248.00000 81 103 122
124.00000 714.00000 240.00000 99 115 135
124.00000 714.00000 248.00000 89 109 128
124.00000 722.00000 248.00000 90 108 128
116.00000 722.00000 256.00000 74 100 120
124.00000 722.00000 256.00000 88 107 124
116.00000 730.00000 256.00000 75 99 115
116.00000 730.00000 264.00000 68 94 110
116.00000 738.00000 264.00000 77 97 111
124.00000 730.00000 256.00000 83 103 119
124.00000 730.00000 264.00000 78 98 114
124.00000 738.00000 264.00000 81 98 110
132.00000 714.00000 240.00000 99 111 132
132.00000 714.00000 248.00000 95 107 128
132.00000 722.00000 248.00000 93 108 126
140.00000 714.00000 248.00000 96 104 126
132.00000 714.00000 256.00000 94 106 127
132.00000 722.00000 256.00000 93 108 125
132.00000 722.00000 264.00000 95 107 125
140.00000 714.00000 256.00000 94 102 124
140.00000 714.00000 264.00000 97 105 125
140.00000 722.00000 256.00000 97 107 126
140.00000 722.00000 264.00000 101 111 129
132.00000 730.00000 256.00000 89 105 122
132.00000 730.00000 264.00000 91 104 117
132.00000 738.00000 264.00000 86 101 114
116.00000 738.00000 272.00000 78 99 110
124.00000 738.00000 272.00000 85 101 109
124.00000 738.00000 280.00000 90 101 105
124.00000 738.00000 288.00000 95 105 107
132.00000 722.00000 272.00000 99 109 123
140.00000 714.00000 272.00000 96 104 124
140.00000 714.00000 280.00000 99 105 125
140.00000 722.00000 272.00000 98 108 124
140.00000 722.00000 280.00000 99 112 127
140.00000 714.00000 288.00000 98 98 122
140.00000 714.00000 296.00000 107 101 128
140.00000 722.00000 288.00000 99 108 124
132.00000 730.00000 272.00000 94 107 118
132.00000 730.00000 280.00000 98 109 118
132.00000 738.00000 272.00000 86 102 110
132.00000 738.00000 280.00000 96 107 112
140.00000 730.00000 272.00000 99 109 123
140.00000 730.00000 280.00000 101 111 125
132.00000 730.00000 288.00000 104 113 121
132.00000 730.00000 296.00000 109 118 126
132.00000 738.00000 288.00000 101 111 113
132.00000 738.00000 296.00000 105 115 119
140.00000 730.00000 288.00000 102 113 122
140.00000 730.00000 296.00000 106 115 123
140.00000 738.00000 296.00000 106 116 120
116.00000 746.00000 272.00000 82 98 102
116.00000 746.00000 280.00000 85 97 96
116.00000 754.00000 280.00000 92 92 88
124.00000 746.00000 272.00000 85 99 103
124.00000 746.00000 280.00000 88 99 101
116.00000 746.00000 288.00000 88 96 92
116.00000 754.00000 288.00000 86 91 82
124.00000 746.00000 288.00000 94 102 98
124.00000 754.00000 288.00000 99 106 98
116.00000 762.00000 280.00000 104 90 86
116.00000 770.00000 280.00000 111 90 87
116.00000 762.00000 288.00000 106 99 91
116.00000 770.00000 288.00000 110 99 92
124.00000 762.00000 288.00000 101 108 97
124.00000 762.00000 296.00000 113 121 105
124.00000 770.00000 288.00000 109 110 98
124.00000 770.00000 296.00000 115 123 107
132.00000 746.00000 288.00000 101 109 103
132.00000 746.00000 296.00000 106 114 110
132.00000 754.00000 288.00000 102 109 101
132.00000 754.00000 296.00000 109 116 108
140.00000 746.00000 296.00000 111 118 114
140.00000 754.00000 296.00000 119 124 113
132.00000 762.00000 288.00000 108 115 104
132.00000 762.00000 296.00000 121 130 114
132.00000 770.00000 296.00000 123 133 112
140.00000 770.00000 296.00000 135 145 121
116.00000 650.00000 304.00000 174 106 82
116.00000 650.00000 312.00000 197 117 91
116.00000 658.00000 304.00000 178 110 90
116.00000 658.00000 312.00000 203 123 97
124.00000 650.00000 304.00000 170 106 86
124.00000 658.00000 304.00000 157 100 89
116.00000 650.00000 320.00000 211 122 93
116.00000 650.00000 328.00000 210 124 102
116.00000 658.00000 320.00000 213 124 95
116.00000 658.00000 328.00000 228 125 93
124.00000 658.00000 328.00000 203 124 110
116.00000 666.00000 312.00000 192 117 102
124.00000 666.00000 304.00000 156 100 97
124.00000 666.00000 312.00000 171 109 105
124.00000 674.00000 304.00000 140 94 100
124.00000 674.00000 312.00000 157 108 119
116.00000 666.00000 320.00000 201 120 103
116.00000 666.00000 328.00000 207 122 104
124.00000 666.00000 320.00000 190 118 113
124.00000 666.00000 328.00000 194 122 117
124.00000 674.00000 320.00000 174 114 118
124.00000 674.00000 328.00000 178 119 125
132.00000 666.00000 304.00000 101 77 104
132.00000 674.00000 304.00000 133 96 114
132.00000 674.00000 312.00000 159 118 139
140.00000 674.00000 304.00000 93 73 112
132.00000 666.00000 328.00000 179 124 132
132.00000 674.00000 320.00000 167 118 131
132.00000 674.00000 328.00000 167 121 138
140.00000 674.00000 320.00000 150 121 154
140.00000 674.00000 328.00000 156 122 148
116.00000 650.00000 336.00000 193 125 119
116.00000 658.00000 336.00000 204 125 111
124.00000 650.00000 336.00000 181 125 128
124.00000 650.00000 344.00000 164 125 140
124.00000 658.00000 336.00000 189 126 124
124.00000 666.00000 336.00000 187 125 127
132.00000 650.00000 336.00000 153 123 148
132.00000 650.00000 344.00000 157 123 143
132.00000 658.00000 336.00000 165 124 140
132.00000 658.00000 344.00000 157 123 145
140.00000 650.00000 344.00000 129 118 158
140.00000 658.00000 336.00000 155 122 148
140.00000 658.00000 344.00000 146 122 151
132.00000 666.00000 336.00000 176 127 138
140.00000 666.00000 336.00000 166 125 142
140.00000 674.00000 336.00000 169 123 140
132.00000 682.00000 304.00000 103 81 122
132.00000 682.00000 312.00000 129 102 136
140.00000 682.00000 304.00000 111 90 129
140.00000 682.00000 312.00000 130 107 142
140.00000 690.00000 304.00000 99 81 121
140.00000 690.00000 312.00000 122 101 138
132.00000 682.00000 320.00000 154 118 142
140.00000 682.00000 320.00000 143 115 145
140.00000 682.00000 328.00000 148 120 150
140.00000 690.00000 320.00000 137 116 153
140.00000 698.00000 304.00000 119 102 136
140.00000 698.00000 312.00000 139 118 151
140.00000 706.00000 304.00000 120 106 135
140.00000 706.00000 312.00000 137 118 148
140.00000 698.00000 320.00000 142 121 154
140.00000 706.00000 320.00000 151 128 159
140.00000 706.00000 328.00000 144 124 152
140.00000 714.00000 304.00000 124 112 136
140.00000 714.00000 312.00000 135 116 142
140.00000 722.00000 304.00000 116 112 129
140.00000 722.00000 312.00000 127 114 135
140.00000 714.00000 320.00000 142 122 150
140.00000 714.00000 328.00000 140 120 146
140.00000 722.00000 320.00000 130 112 132
140.00000 730.00000 304.00000 118 114 127
140.00000 730.00000 312.00000 124 115 127
140.00000 738.00000 304.00000 114 116 118
140.00000 738.00000 312.00000 124 117 121
132.00000 754.00000 304.00000 118 119 111
140.00000 746.00000 304.00000 116 119 114
140.00000 746.00000 312.00000 124 121 114
140.00000 754.00000 304.00000 122 120 113
140.00000 754.00000 312.00000 129 122 112
140.00000 746.00000 320.00000 127 120 115
140.00000 754.00000 320.00000 127 121 115
132.00000 762.00000 304.00000 124 128 113
132.00000 770.00000 304.00000 125 133 113
140.00000 762.00000 304.00000 129 130 116
140.00000 762.00000 312.00000 129 128 114
140.00000 770.00000 304.00000 130 136 116
148.00000 522.00000 200.00000 107 126 152
156.00000 522.00000 200.00000 107 126 152
156.00000 530.00000 200.00000 108 127 153
148.00000 546.00000 200.00000 107 125 149
156.00000 546.00000 192.00000 91 109 133
156.00000 546.00000 200.00000 78 96 120
164.00000 522.00000 192.00000 111 134 161
164.00000 522.00000 200.00000 104 127 154
164.00000 530.00000 200.00000 98 117 143
172.00000 522.00000 192.00000 103 126 153
172.00000 522.00000 200.00000 98 121 148
172.00000 530.00000 192.00000 100 123 150
172.00000 530.00000 200.00000 87 109 136
164.00000 546.00000 184.00000 128 146 170
172.00000 546.00000 184.00000 119 137 161
164.00000 538.00000 192.00000 88 107 133
164.00000 538.00000 200.00000 63 82 108
164.00000 546.00000 192.00000 101 121 144
164.00000 546.00000 200.00000 36 55 81
172.00000 538.00000 192.00000 83 105 130
172.00000 538.00000 200.00000 64 83 109
172.00000 546.00000 192.00000 88 108 131
148.00000 522.00000 208.00000 106 124 150
148.00000 530.00000 208.00000 105 123 147
148.00000 530.00000 216.00000 99 117 141
156.00000 522.00000 208.00000 105 124 150
156.00000 530.00000 208.00000 104 122 146
156.00000 530.00000 216.00000 100 118 142
148.00000 538.00000 216.00000 94 110 134
148.00000 546.00000 208.00000 95 113 137
148.00000 546.00000 216.00000 89 105 129
156.00000 538.00000 208.00000 82 100 124
156.00000 538.00000 216.00000 91 109 133
156.00000 546.00000 208.00000 91 109 133
156.00000 546.00000 216.00000 95 111 135
148.00000 538.00000 224.00000 80 94 117
148.00000 538.00000 232.00000 75 89 112
148.00000 546.00000 224.00000 81 95 118
148.00000 546.00000 232.00000 78 92 115
156.00000 538.00000 224.00000 85 101 123
156.00000 538.00000 232.00000 79 93 116
156.00000 546.00000 224.00000 82 96 119
156.00000 546.00000 232.00000 78 92 115
164.00000 530.00000 208.00000 87 106 132
164.00000 530.00000 216.00000 93 112 138
172.00000 530.00000 208.00000 86 105 131
172.00000 530.00000 216.00000 94 116 143
164.00000 538.00000 208.00000 89 107 133
164.00000 538.00000 216.00000 97 115 141
164.00000 546.00000 208.00000 66 84 108
164.00000 546.00000 216.00000 93 111 135
172.00000 538.00000 208.00000 80 99 125
172.00000 538.00000 216.00000 95 114 140
164.00000 538.00000 224.00000 90 106 130
164.00000 538.00000 232.00000 86 102 126
164.00000 546.00000 224.00000 89 107 131
164.00000 546.00000 232.00000 85 101 125
148.00000 554.00000 184.00000 111 127 149
148.00000 562.00000 184.00000 115 131 153
156.00000 554.00000 184.00000 112 128 150
156.00000 562.00000 184.00000 123 137 158
148.00000 554.00000 192.00000 106 122 144
148.00000 554.00000 200.00000 92 110 134
148.00000 562.00000 192.00000 113 129 151
156.00000 554.00000 192.00000 86 104 128
156.00000 554.00000 200.00000 78 96 120
148.00000 570.00000 184.00000 117 131 152
148.00000 578.00000 184.00000 127 139 160
156.00000 570.00000 184.00000 123 137 158
156.00000 578.00000 184.00000 129 143 164
164.00000 554.00000 184.00000 119 137 161
164.00000 562.00000 184.00000 133 147 168
172.00000 554.00000 184.00000 141 157 179
172.00000 562.00000 184.00000 145 161 183
164.00000 554.00000 192.00000 91 109 133
164.00000 570.00000 184.00000 139 153 174
164.00000 578.00000 184.00000 136 150 171
172.00000 570.00000 184.00000 143 157 178
172.00000 578.00000 184.00000 144 156 177
148.00000 554.00000 208.00000 91 109 133
148.00000 554.00000 216.00000 86 102 126
148.00000 554.00000 224.00000 78 92 115
148.00000 554.00000 232.00000 72 86 109
148.00000 562.00000 224.00000 77 91 114
148.00000 562.00000 232.00000 74 88 111
156.00000 554.00000 224.00000 83 99 121
156.00000 554.00000 232.00000 78 92 115
180.00000 522.00000 192.00000 86 109 136
180.00000 522.00000 200.00000 83 106 133
180.00000 530.00000 192.00000 85 108 135
180.00000 530.00000 200.00000 92 114 141
188.00000 522.00000 192.00000 67 90 117
188.00000 522.00000 200.00000 72 95 122
188.00000 530.00000 192.00000 77 100 127
188.00000 530.00000 200.00000 80 103 130
180.00000 538.00000 184.00000 104 126 151
180.00000 546.00000 184.00000 114 133 159
188.00000 538.00000 184.00000 98 120 145
188.00000 546.00000 184.00000 109 128 154
180.00000 538.00000 192.00000 95 117 142
180.00000 546.00000 192.00000 98 117 143
188.00000 538.00000 192.00000 92 114 139
196.00000 522.00000 192.00000 51 74 101
196.00000 522.00000 200.00000 64 87 114
196.00000 530.00000 192.00000 66 89 116
204.00000 522.00000 192.00000 63 86 113
204.00000 522.00000 200.00000 67 90 117
204.00000 530.00000 192.00000 70 93 120
196.00000 538.00000 184.00000 83 105 130
196.00000 546.00000 184.00000 108 128 151
204.00000 538.00000 184.00000 90 112 137
204.00000 546.00000 184.00000 101 123 148
196.00000 538.00000 192.00000 79 101 128
204.00000 538.00000 192.00000 82 104 131
180.00000 554.00000 184.00000 138 156 178
180.00000 562.00000 184.00000 153 169 191
188.00000 554.00000 184.00000 129 147 171
188.00000 562.00000 184.00000 150 166 188
180.00000 570.00000 184.00000 150 166 188
180.00000 578.00000 184.00000 146 160 181
188.00000 570.00000 184.00000 151 167 189
188.00000 578.00000 184.00000 153 169 189
188.00000 578.00000 192.00000 154 168 189
196.00000 554.00000 184.00000 137 155 177
196.00000 562.00000 184.00000 144 160 182
204.00000 554.00000 184.00000 128 146 170
204.00000 562.00000 184.00000 144 162 184
204.00000 562.00000 192.00000 147 163 185
196.00000 570.00000 184.00000 153 169 189
196.00000 578.00000 184.00000 156 172 192
204.00000 570.00000 184.00000 151 167 189
196.00000 570.00000 192.00000 153 169 189
196.00000 578.00000 192.00000 156 172 192
196.00000 578.00000 200.00000 156 170 191
204.00000 570.00000 192.00000 154 170 190
204.00000 578.00000 192.00000 159 175 195
204.00000 578.00000 200.00000 155 169 190
148.00000 546.00000 240.00000 74 86 109
148.00000 554.00000 240.00000 73 85 106
148.00000 554.00000 248.00000 72 84 105
148.00000 562.00000 240.00000 72 86 107
148.00000 562.00000 248.00000 73 87 108
156.00000 554.00000 240.00000 71 85 106
156.00000 562.00000 240.00000 72 86 107
148.00000 570.00000 240.00000 74 88 109
148.00000 570.00000 248.00000 75 91 111
148.00000 570.00000 256.00000 74 90 110
148.00000 586.00000 184.00000 134 144 163
148.00000 594.00000 184.00000 136 146 165
156.00000 586.00000 184.00000 138 148 167
156.00000 594.00000 184.00000 137 147 166
148.00000 602.00000 184.00000 136 144 163
148.00000 610.00000 184.00000 139 147 166
156.00000 602.00000 184.00000 138 146 165
156.00000 610.00000 184.00000 140 148 167
156.00000 610.00000 192.00000 141 149 168
164.00000 586.00000 184.00000 143 153 172
164.00000 594.00000 184.00000 142 152 171
172.00000 586.00000 184.00000 145 157 176
172.00000 594.00000 184.00000 143 155 174
172.00000 594.00000 192.00000 144 156 175
164.00000 602.00000 184.00000 141 151 170
164.00000 610.00000 184.00000 141 149 168
172.00000 602.00000 184.00000 142 152 171
164.00000 602.00000 192.00000 140 150 169
164.00000 610.00000 192.00000 140 148 167
172.00000 602.00000 192.00000 140 150 169
172.00000 610.00000 192.00000 138 146 165
148.00000 618.00000 184.00000 141 149 168
148.00000 626.00000 184.00000 140 148 167
156.00000 618.00000 184.00000 142 150 169
156.00000 626.00000 184.00000 142 150 169
148.00000 626.00000 192.00000 138 146 165
156.00000 618.00000 192.00000 144 152 171
156.00000 626.00000 192.00000 141 149 168
148.00000 634.00000 184.00000 139 145 164
148.00000 634.00000 192.00000 137 145 164
148.00000 634.00000 200.00000 137 143 160
148.00000 642.00000 192.00000 132 141 157
148.00000 642.00000 200.00000 135 141 158
156.00000 634.00000 192.00000 142 148 167
156.00000 634.00000 200.00000 136 142 161
156.00000 642.00000 200.00000 133 139 156
164.00000 618.00000 192.00000 141 149 168
164.00000 626.00000 192.00000 149 155 174
164.00000 626.00000 200.00000 137 143 162
172.00000 618.00000 192.00000 133 141 160
172.00000 618.00000 200.00000 124 132 151
172.00000 626.00000 192.00000 136 144 163
172.00000 626.00000 200.00000 126 134 153
164.00000 634.00000 192.00000 141 147 166
164.00000 634.00000 200.00000 132 138 155
164.00000 642.00000 200.00000 126 132 149
172.00000 634.00000 200.00000 125 131 148
172.00000 642.00000 200.00000 113 119 136
156.00000 634.00000 208.00000 135 141 158
156.00000 642.00000 208.00000 128 134 151
172.00000 626.00000 208.00000 112 120 139
172.00000 626.00000 216.00000 99 109 127
164.00000 634.00000 208.00000 118 127 143
164.00000 642.00000 208.00000 114 123 139
172.00000 634.00000 208.00000 111 119 138
172.00000 634.00000 216.00000 100 108 127
172.00000 642.00000 208.00000 112 121 137
180.00000 586.00000 184.00000 148 162 183
188.00000 586.00000 184.00000 150 164 185
180.00000 586.00000 192.00000 149 163 184
180.00000 594.00000 192.00000 147 161 182
188.00000 586.00000 192.00000 150 164 185
188.00000 594.00000 192.00000 141 153 172
188.00000 594.00000 200.00000 139 154 172
180.00000 602.00000 192.00000 137 149 168
180.00000 602.00000 200.00000 135 147 166
180.00000 610.00000 192.00000 129 137 156
180.00000 610.00000 200.00000 124 134 153
188.00000 602.00000 192.00000 134 146 165
188.00000 602.00000 200.00000 127 139 158
188.00000 610.00000 200.00000 123 133 152
196.00000 586.00000 192.00000 152 166 187
196.00000 586.00000 200.00000 152 166 187
196.00000 594.00000 200.00000 135 150 168
204.00000 586.00000 200.00000 148 162 183
204.00000 594.00000 200.00000 134 149 167
196.00000 602.00000 200.00000 124 139 157
196.00000 610.00000 200.00000 121 133 152
188.00000 610.00000 208.00000 110 122 141
204.00000 586.00000 208.00000 138 153 171
204.00000 594.00000 208.00000 126 141 159
196.00000 602.00000 208.00000 121 136 154
196.00000 610.00000 208.00000 117 129 148
204.00000 602.00000 208.00000 124 139 157
204.00000 602.00000 216.00000 124 139 157
204.00000 610.00000 208.00000 113 125 144
204.00000 610.00000 216.00000 114 126 145
180.00000 618.00000 192.00000 125 133 152
180.00000 618.00000 200.00000 111 121 139
180.00000 626.00000 200.00000 103 113 131
188.00000 618.00000 200.00000 103 113 131
188.00000 626.00000 200.00000 104 114 132
180.00000 626.00000 208.00000 94 104 122
180.00000 626.00000 216.00000 88 98 116
188.00000 618.00000 208.00000 95 105 123
188.00000 626.00000 208.00000 98 108 126
188.00000 626.00000 216.00000 81 91 109
188.00000 626.00000 224.00000 86 96 114
180.00000 634.00000 208.00000 92 102 120
180.00000 634.00000 216.00000 88 98 116
180.00000 642.00000 208.00000 96 105 121
180.00000 642.00000 216.00000 90 99 115
188.00000 634.00000 216.00000 84 94 112
188.00000 642.00000 208.00000 89 98 114
188.00000 642.00000 216.00000 85 94 110
188.00000 634.00000 224.00000 83 93 111
196.00000 618.00000 208.00000 96 108 126
196.00000 618.00000 216.00000 93 105 123
196.00000 626.00000 208.00000 94 106 124
196.00000 626.00000 216.00000 95 107 125
204.00000 618.00000 208.00000 102 114 132
204.00000 618.00000 216.00000 97 109 127
204.00000 626.00000 216.00000 96 108 126
196.00000 626.00000 224.00000 91 103 121
204.00000 618.00000 224.00000 99 111 129
204.00000 626.00000 224.00000 95 107 125
204.00000 626.00000 232.00000 93 105 123
196.00000 634.00000 216.00000 83 93 111
196.00000 642.00000 208.00000 84 94 110
196.00000 642.00000 216.00000 84 94 110
204.00000 634.00000 216.00000 85 95 113
204.00000 642.00000 208.00000 84 94 110
204.00000 642.00000 216.00000 84 94 110
196.00000 634.00000 224.00000 85 95 113
204.00000 634.00000 224.00000 89 99 117
212.00000 522.00000 192.00000 80 103 130
212.00000 530.00000 192.00000 82 105 132
220.00000 522.00000 192.00000 91 117 143
220.00000 530.00000 192.00000 93 119 145
212.00000 538.00000 184.00000 85 108 135
212.00000 546.00000 184.00000 114 136 161
212.00000 538.00000 192.00000 98 121 148
212.00000 546.00000 192.00000 112 134 159
220.00000 538.00000 192.00000 96 119 146
220.00000 546.00000 192.00000 118 140 165
228.00000 522.00000 192.00000 101 127 153
228.00000 530.00000 192.00000 101 127 153
228.00000 530.00000 200.00000 105 128 155
236.00000 522.00000 192.00000 102 128 154
236.00000 522.00000 200.00000 102 128 154
236.00000 530.00000 200.00000 104 130 156
228.00000 538.00000 192.00000 102 125 152
228.00000 538.00000 200.00000 107 130 157
228.00000 546.00000 192.00000 112 135 160
228.00000 546.00000 200.00000 113 136 161
236.00000 538.00000 200.00000 108 131 158
236.00000 546.00000 200.00000 113 136 163
236.00000 546.00000 208.00000 116 139 166
212.00000 554.00000 184.00000 146 164 186
212.00000 562.00000 184.00000 144 162 184
212.00000 554.00000 192.00000 141 159 181
212.00000 562.00000 192.00000 143 161 183
220.00000 554.00000 192.00000 134 154 177
220.00000 562.00000 192.00000 138 156 178
220.00000 562.00000 200.00000 136 154 176
212.00000 570.00000 192.00000 144 160 182
212.00000 570.00000 200.00000 144 160 180
212.00000 578.00000 192.00000 150 166 186
212.00000 578.00000 200.00000 142 158 178
220.00000 570.00000 192.00000 143 159 179
220.00000 570.00000 200.00000 140 158 180
220.00000 578.00000 200.00000 142 158 178
228.00000 554.00000 192.00000 133 153 176
228.00000 554.00000 200.00000 122 144 169
228.00000 562.00000 192.00000 138 156 178
228.00000 562.00000 200.00000 137 155 177
236.00000 554.00000 200.00000 122 144 169
236.00000 562.00000 200.00000 128 148 171
228.00000 570.00000 200.00000 139 155 175
212.00000 578.00000 208.00000 141 157 177
220.00000 570.00000 208.00000 137 153 173
220.00000 578.00000 208.00000 137 153 173
220.00000 578.00000 216.00000 132 148 168
228.00000 562.00000 208.00000 129 149 172
236.00000 554.00000 208.00000 120 143 168
236.00000 562.00000 208.00000 128 148 171
236.00000 562.00000 216.00000 124 146 169
228.00000 570.00000 208.00000 134 152 174
228.00000 570.00000 216.00000 128 146 168
228.00000 578.00000 208.00000 135 151 171
228.00000 578.00000 216.00000 130 146 166
236.00000 570.00000 208.00000 129 147 169
236.00000 570.00000 216.00000 128 146 168
236.00000 578.00000 216.00000 128 146 166
228.00000 578.00000 224.00000 127 145 165
236.00000 570.00000 224.00000 125 145 166
236.00000 578.00000 224.00000 127 145 165
236.00000 578.00000 232.00000 121 141 160
244.00000 522.00000 192.00000 103 129 155
244.00000 522.00000 200.00000 103 129 155
244.00000 530.00000 200.00000 105 131 157
252.00000 522.00000 200.00000 101 127 153
244.00000 538.00000 200.00000 114 137 164
244.00000 546.00000 200.00000 119 142 169
244.00000 522.00000 208.00000 103 129 155
244.00000 530.00000 208.00000 107 133 159
252.00000 522.00000 208.00000 104 130 156
252.00000 522.00000 216.00000 103 129 155
252.00000 530.00000 208.00000 106 132 158
252.00000 530.00000 216.00000 109 135 161
244.00000 538.00000 208.00000 115 138 165
244.00000 546.00000 208.00000 118 141 168
244.00000 546.00000 216.00000 120 143 170
252.00000 538.00000 208.00000 112 138 164
252.00000 538.00000 216.00000 117 143 169
252.00000 546.00000 208.00000 121 144 171
252.00000 546.00000 216.00000 125 151 177
252.00000 546.00000 224.00000 127 153 179
260.00000 522.00000 208.00000 99 124 153
260.00000 522.00000 216.00000 105 130 159
260.00000 530.00000 216.00000 108 134 160
260.00000 522.00000 224.00000 109 134 163
260.00000 522.00000 232.00000 112 137 166
260.00000 530.00000 224.00000 111 137 163
260.00000 530.00000 232.00000 115 140 169
268.00000 522.00000 232.00000 110 138 166
268.00000 530.00000 232.00000 118 144 170
260.00000 538.00000 216.00000 119 145 171
260.00000 546.00000 216.00000 124 150 176
260.00000 538.00000 224.00000 125 151 177
260.00000 538.00000 232.00000 127 153 179
260.00000 546.00000 224.00000 132 158 182
260.00000 546.00000 232.00000 139 165 189
268.00000 538.00000 232.00000 127 153 179
268.00000 546.00000 232.00000 132 158 184
244.00000 554.00000 208.00000 121 144 169
244.00000 554.00000 216.00000 122 145 172
244.00000 562.00000 208.00000 124 146 169
244.00000 562.00000 216.00000 124 146 169
252.00000 554.00000 216.00000 125 148 175
252.00000 562.00000 216.00000 124 147 172
244.00000 562.00000 224.00000 123 146 171
252.00000 554.00000 224.00000 129 152 177
252.00000 554.00000 232.00000 130 153 178
252.00000 562.00000 224.00000 123 146 171
252.00000 562.00000 232.00000 124 147 170
244.00000 570.00000 216.00000 126 146 169
244.00000 570.00000 224.00000 123 145 168
244.00000 570.00000 232.00000 121 143 166
244.00000 578.00000 224.00000 124 144 165
244.00000 578.00000 232.00000 121 143 164
252.00000 570.00000 224.00000 121 144 167
252.00000 570.00000 232.00000 121 143 166
252.00000 578.00000 232.00000 121 143 166
260.00000 554.00000 224.00000 129 155 179
260.00000 554.00000 232.00000 132 158 182
236.00000 578.00000 240.00000 115 135 154
260.00000 522.00000 240.00000 107 135 163
260.00000 522.00000 248.00000 102 130 159
268.00000 522.00000 240.00000 106 134 162
268.00000 522.00000 248.00000 102 130 159
268.00000 530.00000 240.00000 108 136 164
268.00000 530.00000 248.00000 103 131 159
260.00000 522.00000 256.00000 98 126 155
260.00000 522.00000 264.00000 98 126 155
268.00000 522.00000 256.00000 100 128 157
268.00000 522.00000 264.00000 97 125 154
268.00000 530.00000 256.00000 100 128 156
268.00000 530.00000 264.00000 98 126 154
260.00000 546.00000 240.00000 126 152 176
260.00000 546.00000 248.00000 123 149 175
268.00000 538.00000 240.00000 117 143 169
268.00000 538.00000 248.00000 110 138 164
268.00000 546.00000 240.00000 130 156 180
268.00000 546.00000 248.00000 122 148 174
268.00000 538.00000 256.00000 102 130 158
268.00000 538.00000 264.00000 96 124 152
268.00000 546.00000 256.00000 109 135 161
268.00000 546.00000 264.00000 101 127 153
268.00000 522.00000 272.00000 96 125 154
268.00000 522.00000 280.00000 96 125 154
268.00000 530.00000 272.00000 96 125 154
268.00000 530.00000 280.00000 96 125 154
268.00000 522.00000 288.00000 96 125 154
268.00000 530.00000 288.00000 96 125 153
268.00000 538.00000 272.00000 96 124 152
252.00000 554.00000 240.00000 126 149 174
252.00000 562.00000 240.00000 120 143 166
244.00000 578.00000 240.00000 116 136 157
244.00000 578.00000 248.00000 104 124 143
252.00000 570.00000 240.00000 114 137 160
252.00000 570.00000 248.00000 107 129 150
252.00000 578.00000 240.00000 115 137 158
252.00000 578.00000 248.00000 99 121 140
252.00000 578.00000 256.00000 94 116 135
252.00000 578.00000 264.00000 92 112 131
260.00000 554.00000 240.00000 127 153 177
260.00000 554.00000 248.00000 121 144 169
260.00000 562.00000 240.00000 122 145 168
260.00000 562.00000 248.00000 117 140 163
268.00000 554.00000 248.00000 117 143 167
260.00000 554.00000 256.00000 109 135 159
260.00000 554.00000 264.00000 104 127 152
260.00000 562.00000 256.00000 104 127 150
260.00000 562.00000 264.00000 101 124 147
268.00000 554.00000 256.00000 108 134 158
268.00000 554.00000 264.00000 98 124 148
268.00000 562.00000 264.00000 99 122 145
260.00000 570.00000 240.00000 115 138 161
260.00000 570.00000 248.00000 104 126 147
260.00000 578.00000 248.00000 96 118 137
260.00000 570.00000 256.00000 101 123 144
260.00000 570.00000 264.00000 98 120 141
260.00000 578.00000 256.00000 96 118 137
260.00000 578.00000 264.00000 92 114 133
268.00000 570.00000 256.00000 99 121 142
268.00000 570.00000 264.00000 98 120 141
268.00000 578.00000 264.00000 94 116 137
260.00000 562.00000 272.00000 99 122 145
268.00000 554.00000 272.00000 98 121 146
268.00000 554.00000 280.00000 95 121 145
268.00000 562.00000 272.00000 98 120 143
268.00000 562.00000 280.00000 96 118 141
268.00000 562.00000 288.00000 95 113 135
268.00000 562.00000 296.00000 94 108 129
260.00000 578.00000 272.00000 90 110 129
268.00000 570.00000 272.00000 96 118 139
268.00000 570.00000 280.00000 96 114 136
268.00000 578.00000 272.00000 94 114 135
268.00000 578.00000 280.00000 94 112 132
268.00000 570.00000 288.00000 96 110 131
268.00000 570.00000 296.00000 95 103 122
268.00000 578.00000 288.00000 93 108 126
212.00000 586.00000 200.00000 142 158 178
212.00000 586.00000 208.00000 135 151 171
212.00000 586.00000 216.00000 131 147 165
212.00000 594.00000 208.00000 126 141 159
212.00000 594.00000 216.00000 130 145 163
220.00000 586.00000 208.00000 135 151 171
220.00000 586.00000 216.00000 132 148 166
220.00000 594.00000 216.00000 133 148 166
220.00000 586.00000 224.00000 129 145 163
220.00000 594.00000 224.00000 125 141 159
212.00000 602.00000 208.00000 122 137 155
212.00000 602.00000 216.00000 118 133 151
212.00000 610.00000 216.00000 111 123 142
220.00000 602.00000 216.00000 121 136 154
212.00000 610.00000 224.00000 107 122 140
220.00000 602.00000 224.00000 116 131 149
220.00000 602.00000 232.00000 106 121 139
220.00000 610.00000 224.00000 101 116 133
220.00000 610.00000 232.00000 95 110 127
228.00000 586.00000 216.00000 131 147 167
228.00000 586.00000 224.00000 122 138 158
228.00000 586.00000 232.00000 117 135 155
228.00000 594.00000 224.00000 117 133 151
228.00000 594.00000 232.00000 113 132 149
236.00000 586.00000 224.00000 119 137 157
236.00000 586.00000 232.00000 114 132 152
236.00000 594.00000 232.00000 107 126 143
228.00000 602.00000 224.00000 112 128 146
228.00000 602.00000 232.00000 106 122 140
228.00000 610.00000 232.00000 97 112 129
236.00000 602.00000 232.00000 102 118 136
212.00000 618.00000 216.00000 100 115 132
212.00000 618.00000 224.00000 90 105 122
212.00000 618.00000 232.00000 92 107 124
212.00000 626.00000 224.00000 89 104 121
212.00000 626.00000 232.00000 87 102 119
220.00000 618.00000 224.00000 91 106 123
220.00000 618.00000 232.00000 87 102 119
220.00000 626.00000 232.00000 83 98 115
212.00000 634.00000 216.00000 85 95 109
212.00000 642.00000 208.00000 85 95 109
212.00000 642.00000 216.00000 85 95 109
220.00000 634.00000 216.00000 83 96 109
220.00000 642.00000 208.00000 85 95 107
220.00000 642.00000 216.00000 85 95 107
212.00000 634.00000 224.00000 85 98 113
212.00000 634.00000 232.00000 86 101 116
220.00000 634.00000 224.00000 84 97 110
220.00000 634.00000 232.00000 84 99 114
220.00000 642.00000 224.00000 82 95 106
228.00000 618.00000 232.00000 88 103 120
228.00000 626.00000 232.00000 84 99 116
236.00000 626.00000 232.00000 83 100 114
228.00000 642.00000 216.00000 77 90 99
236.00000 642.00000 216.00000 71 84 93
228.00000 634.00000 224.00000 79 94 107
228.00000 634.00000 232.00000 83 98 113
228.00000 642.00000 224.00000 78 91 102
236.00000 634.00000 224.00000 77 92 103
236.00000 634.00000 232.00000 82 97 112
236.00000 642.00000 224.00000 76 89 98
244.00000 626.00000 232.00000 86 103 117
252.00000 626.00000 232.00000 89 108 124
244.00000 642.00000 216.00000 66 82 90
252.00000 642.00000 216.00000 60 76 84
244.00000 634.00000 224.00000 77 92 105
244.00000 634.00000 232.00000 84 101 115
244.00000 642.00000 224.00000 69 85 93
252.00000 634.00000 224.00000 74 91 101
252.00000 634.00000 232.00000 83 100 114
252.00000 642.00000 224.00000 71 86 97
260.00000 626.00000 232.00000 86 105 119
268.00000 626.00000 232.00000 86 105 119
260.00000 642.00000 216.00000 67 82 93
268.00000 642.00000 216.00000 71 88 98
260.00000 634.00000 224.00000 76 93 105
260.00000 634.00000 232.00000 85 102 116
260.00000 642.00000 224.00000 69 86 96
268.00000 634.00000 224.00000 77 94 106
268.00000 634.00000 232.00000 83 100 112
268.00000 642.00000 224.00000 72 89 99
236.00000 586.00000 240.00000 110 128 148
236.00000 594.00000 240.00000 96 115 132
228.00000 602.00000 240.00000 93 109 127
228.00000 610.00000 240.00000 82 98 115
236.00000 602.00000 240.00000 88 107 124
236.00000 602.00000 248.00000 77 96 113
236.00000 610.00000 240.00000 81 97 114
236.00000 610.00000 248.00000 70 89 105
236.00000 610.00000 256.00000 68 87 103
220.00000 618.00000 240.00000 88 103 120
220.00000 626.00000 240.00000 85 100 117
228.00000 618.00000 240.00000 82 98 115
228.00000 618.00000 248.00000 76 92 109
228.00000 626.00000 240.00000 81 97 114
228.00000 626.00000 248.00000 78 94 111
236.00000 618.00000 240.00000 78 94 111
236.00000 618.00000 248.00000 75 91 108
236.00000 626.00000 240.00000 79 95 112
236.00000 626.00000 248.00000 78 94 111
236.00000 618.00000 256.00000 70 89 105
244.00000 586.00000 240.00000 97 116 133
244.00000 586.00000 248.00000 90 110 127
244.00000 594.00000 240.00000 91 110 127
244.00000 594.00000 248.00000 87 107 124
252.00000 586.00000 248.00000 88 108 125
252.00000 594.00000 248.00000 81 101 118
244.00000 594.00000 256.00000 84 104 121
252.00000 586.00000 256.00000 90 110 129
252.00000 586.00000 264.00000 87 107 124
252.00000 594.00000 256.00000 78 98 115
252.00000 594.00000 264.00000 82 101 118
244.00000 602.00000 248.00000 72 91 108
244.00000 610.00000 248.00000 68 87 103
244.00000 602.00000 256.00000 74 93 110
244.00000 610.00000 256.00000 63 82 99
244.00000 610.00000 264.00000 58 77 94
252.00000 602.00000 256.00000 69 89 106
252.00000 602.00000 264.00000 64 83 100
252.00000 610.00000 256.00000 62 81 98
252.00000 610.00000 264.00000 49 69 86
260.00000 586.00000 264.00000 84 103 120
260.00000 594.00000 264.00000 81 100 117
268.00000 610.00000 248.00000 76 95 111
260.00000 602.00000 264.00000 74 93 110
260.00000 610.00000 256.00000 66 85 101
260.00000 610.00000 264.00000 63 82 99
268.00000 602.00000 256.00000 76 95 111
268.00000 602.00000 264.00000 76 95 111
268.00000 610.00000 256.00000 73 92 108
268.00000 610.00000 264.00000 73 92 108
252.00000 594.00000 272.00000 75 94 111
252.00000 602.00000 272.00000 72 91 108
252.00000 610.00000 272.00000 59 78 95
260.00000 586.00000 272.00000 83 102 119
260.00000 594.00000 272.00000 80 99 116
260.00000 594.00000 280.00000 80 99 116
268.00000 586.00000 272.00000 82 101 118
268.00000 586.00000 280.00000 84 103 120
268.00000 594.00000 272.00000 79 98 115
268.00000 594.00000 280.00000 81 100 117
268.00000 586.00000 288.00000 87 103 121
268.00000 594.00000 288.00000 82 101 118
260.00000 602.00000 272.00000 78 97 114
260.00000 602.00000 280.00000 79 98 115
260.00000 610.00000 272.00000 70 89 106
268.00000 602.00000 272.00000 79 98 115
268.00000 602.00000 280.00000 78 97 114
244.00000 618.00000 248.00000 74 93 109
244.00000 626.00000 240.00000 80 96 113
244.00000 626.00000 248.00000 78 94 111
252.00000 618.00000 248.00000 72 91 107
252.00000 626.00000 240.00000 81 100 116
252.00000 626.00000 248.00000 76 95 111
244.00000 618.00000 256.00000 67 86 102
244.00000 618.00000 264.00000 61 80 96
252.00000 618.00000 256.00000 65 84 100
252.00000 618.00000 264.00000 63 82 98
260.00000 618.00000 240.00000 80 99 115
260.00000 618.00000 248.00000 76 95 111
260.00000 626.00000 240.00000 81 100 116
260.00000 626.00000 248.00000 76 95 111
268.00000 618.00000 240.00000 81 100 116
268.00000 618.00000 248.00000 76 95 111
268.00000 626.00000 240.00000 84 103 117
260.00000 618.00000 256.00000 68 87 103
260.00000 618.00000 264.00000 64 83 99
268.00000 618.00000 256.00000 75 94 110
252.00000 618.00000 272.00000 58 77 94
260.00000 618.00000 272.00000 59 78 95
148.00000 522.00000 360.00000 115 123 145
148.00000 530.00000 360.00000 114 123 147
156.00000 522.00000 352.00000 112 124 147
156.00000 522.00000 360.00000 114 123 147
156.00000 530.00000 352.00000 112 124 147
156.00000 530.00000 360.00000 112 124 147
148.00000 538.00000 360.00000 113 125 150
156.00000 538.00000 360.00000 113 125 150
156.00000 546.00000 360.00000 113 127 152
164.00000 522.00000 352.00000 111 125 148
164.00000 530.00000 352.00000 109 125 149
164.00000 530.00000 360.00000 111 125 148
172.00000 522.00000 352.00000 111 127 149
172.00000 530.00000 352.00000 110 126 148
172.00000 530.00000 360.00000 111 127 149
164.00000 538.00000 360.00000 112 126 149
164.00000 546.00000 360.00000 114 128 149
172.00000 538.00000 360.00000 114 128 149
172.00000 546.00000 360.00000 114 128 149
148.00000 570.00000 360.00000 117 131 160
148.00000 578.00000 360.00000 115 130 162
156.00000 570.00000 360.00000 117 131 160
156.00000 578.00000 360.00000 116 131 165
164.00000 554.00000 360.00000 115 129 152
164.00000 562.00000 360.00000 117 131 152
172.00000 554.00000 360.00000 115 130 148
172.00000 562.00000 360.00000 117 132 149
164.00000 570.00000 360.00000 119 133 156
164.00000 578.00000 360.00000 119 133 160
172.00000 570.00000 360.00000 119 133 154
172.00000 578.00000 360.00000 121 135 158
180.00000 522.00000 352.00000 111 129 151
180.00000 522.00000 360.00000 111 129 151
180.00000 530.00000 360.00000 114 130 152
188.00000 522.00000 352.00000 113 131 153
188.00000 522.00000 360.00000 112 130 152
188.00000 530.00000 360.00000 113 131 153
180.00000 538.00000 360.00000 114 130 150
180.00000 546.00000 360.00000 115 129 150
188.00000 538.00000 360.00000 113 131 153
196.00000 522.00000 352.00000 112 130 152
196.00000 522.00000 360.00000 114 132 154
196.00000 530.00000 360.00000 113 131 153
204.00000 522.00000 352.00000 108 128 149
204.00000 522.00000 360.00000 110 130 151
204.00000 530.00000 360.00000 110 128 150
196.00000 538.00000 360.00000 113 131 153
196.00000 546.00000 360.00000 117 133 155
204.00000 538.00000 360.00000 112 130 152
204.00000 546.00000 360.00000 113 131 153
180.00000 554.00000 360.00000 117 132 150
180.00000 562.00000 360.00000 118 133 151
180.00000 578.00000 360.00000 123 137 162
188.00000 570.00000 360.00000 122 136 157
188.00000 578.00000 360.00000 125 139 162
196.00000 554.00000 360.00000 121 137 157
196.00000 562.00000 360.00000 123 139 159
204.00000 554.00000 360.00000 120 136 158
204.00000 562.00000 360.00000 123 139 161
196.00000 570.00000 360.00000 125 139 160
196.00000 578.00000 360.00000 129 143 166
204.00000 570.00000 360.00000 125 141 163
204.00000 578.00000 360.00000 132 146 169
148.00000 522.00000 368.00000 115 123 147
148.00000 530.00000 368.00000 114 123 147
148.00000 538.00000 368.00000 113 125 150
148.00000 546.00000 368.00000 114 125 153
156.00000 538.00000 368.00000 114 126 151
156.00000 546.00000 368.00000 113 127 154
164.00000 546.00000 368.00000 114 128 153
148.00000 554.00000 368.00000 114 128 157
148.00000 562.00000 368.00000 114 129 160
156.00000 554.00000 368.00000 113 128 157
156.00000 562.00000 368.00000 114 129 160
148.00000 570.00000 368.00000 114 129 161
148.00000 578.00000 368.00000 114 128 165
156.00000 570.00000 368.00000 114 129 160
164.00000 554.00000 368.00000 114 128 153
164.00000 562.00000 368.00000 116 130 153
172.00000 562.00000 368.00000 118 132 153
164.00000 570.00000 368.00000 117 131 160
164.00000 578.00000 368.00000 121 135 164
172.00000 570.00000 368.00000 120 134 155
172.00000 578.00000 368.00000 121 135 160
180.00000 538.00000 368.00000 115 131 151
180.00000 546.00000 368.00000 115 131 151
188.00000 538.00000 368.00000 113 131 153
188.00000 546.00000 368.00000 116 132 152
196.00000 530.00000 368.00000 113 131 153
204.00000 530.00000 368.00000 111 129 151
196.00000 538.00000 368.00000 114 132 154
196.00000 546.00000 368.00000 115 133 155
204.00000 538.00000 368.00000 111 129 151
204.00000 546.00000 368.00000 115 133 155
180.00000 554.00000 368.00000 119 133 154
180.00000 562.00000 368.00000 120 135 153
188.00000 554.00000 368.00000 120 136 156
188.00000 562.00000 368.00000 122 136 157
180.00000 570.00000 368.00000 120 134 155
180.00000 578.00000 368.00000 122 136 159
188.00000 570.00000 368.00000 123 137 158
188.00000 578.00000 368.00000 127 141 164
196.00000 554.00000 368.00000 121 137 159
196.00000 562.00000 368.00000 123 139 159
204.00000 554.00000 368.00000 123 139 161
204.00000 562.00000 368.00000 124 140 160
196.00000 570.00000 368.00000 124 140 160
204.00000 570.00000 368.00000 126 142 164
204.00000 578.00000 368.00000 130 144 167
148.00000 586.00000 360.00000 111 127 172
148.00000 594.00000 360.00000 115 129 174
156.00000 586.00000 360.00000 117 131 170
156.00000 594.00000 360.00000 116 130 173
148.00000 602.00000 360.00000 116 128 175
148.00000 610.00000 360.00000 122 130 172
156.00000 602.00000 360.00000 118 130 174
156.00000 610.00000 360.00000 123 131 171
164.00000 586.00000 360.00000 121 135 166
164.00000 594.00000 360.00000 123 137 168
172.00000 594.00000 360.00000 125 139 168
164.00000 602.00000 360.00000 126 137 170
164.00000 610.00000 360.00000 128 136 172
172.00000 602.00000 360.00000 128 139 171
172.00000 610.00000 360.00000 132 141 173
148.00000 618.00000 352.00000 126 129 166
148.00000 618.00000 360.00000 126 129 168
148.00000 626.00000 352.00000 125 125 165
156.00000 618.00000 352.00000 127 130 167
156.00000 618.00000 360.00000 126 130 169
156.00000 626.00000 352.00000 127 127 167
156.00000 626.00000 360.00000 128 128 166
