ply
format ascii 1.0
element vertex 1174
property float x
property float y
property float z
property uchar red
property uchar green
property uchar blue
element face 0
property list uint8 int32 vertex_index
end_header
128.00000 654.00000 224.00000 65 81 98
128.00000 654.00000 228.00000 64 81 95
124.00000 650.00000 232.00000 63 78 93
124.00000 650.00000 236.00000 65 80 93
124.00000 654.00000 232.00000 62 77 92
128.00000 650.00000 232.00000 68 83 98
128.00000 650.00000 236.00000 70 85 98
128.00000 654.00000 232.00000 65 80 95
128.00000 658.00000 224.00000 70 86 104
128.00000 662.00000 224.00000 79 95 115
116.00000 666.00000 208.00000 88 108 129
116.00000 666.00000 212.00000 87 107 128
116.00000 670.00000 212.00000 89 108 134
120.00000 666.00000 212.00000 87 107 130
120.00000 670.00000 212.00000 89 108 134
120.00000 666.00000 216.00000 86 106 127
120.00000 670.00000 216.00000 88 107 133
116.00000 674.00000 212.00000 91 110 138
116.00000 678.00000 212.00000 89 108 138
116.00000 674.00000 216.00000 89 108 138
116.00000 678.00000 216.00000 89 108 139
120.00000 674.00000 216.00000 88 107 135
120.00000 678.00000 216.00000 88 107 137
120.00000 678.00000 220.00000 89 106 138
124.00000 666.00000 216.00000 86 104 128
124.00000 670.00000 216.00000 89 107 133
124.00000 670.00000 220.00000 89 107 133
128.00000 666.00000 216.00000 84 102 124
128.00000 666.00000 220.00000 87 103 127
128.00000 670.00000 220.00000 91 106 133
124.00000 674.00000 216.00000 89 107 133
124.00000 674.00000 220.00000 89 107 135
124.00000 678.00000 220.00000 89 107 135
128.00000 674.00000 220.00000 91 106 133
128.00000 678.00000 220.00000 91 106 135
128.00000 666.00000 224.00000 85 101 123
128.00000 670.00000 224.00000 89 105 129
128.00000 674.00000 224.00000 91 106 133
128.00000 678.00000 224.00000 92 107 134
132.00000 654.00000 224.00000 67 83 100
132.00000 654.00000 228.00000 72 87 104
132.00000 650.00000 232.00000 72 87 102
132.00000 650.00000 236.00000 76 91 104
132.00000 654.00000 232.00000 72 87 102
132.00000 654.00000 236.00000 77 92 107
136.00000 654.00000 232.00000 80 95 112
136.00000 654.00000 236.00000 84 99 114
132.00000 658.00000 224.00000 74 90 108
132.00000 658.00000 228.00000 75 90 108
132.00000 662.00000 224.00000 82 98 118
132.00000 662.00000 228.00000 81 96 114
136.00000 658.00000 228.00000 80 95 113
136.00000 662.00000 228.00000 83 97 118
132.00000 658.00000 232.00000 77 92 109
136.00000 658.00000 232.00000 82 97 115
136.00000 658.00000 236.00000 85 100 118
136.00000 662.00000 232.00000 85 100 118
136.00000 662.00000 236.00000 86 98 117
140.00000 658.00000 236.00000 86 101 119
140.00000 662.00000 232.00000 84 99 117
140.00000 662.00000 236.00000 85 100 118
132.00000 666.00000 224.00000 86 102 124
132.00000 666.00000 228.00000 86 100 121
132.00000 670.00000 224.00000 89 105 129
132.00000 670.00000 228.00000 89 103 126
136.00000 666.00000 228.00000 87 101 124
136.00000 670.00000 228.00000 90 104 127
136.00000 666.00000 232.00000 86 100 121
136.00000 670.00000 232.00000 93 107 130
132.00000 674.00000 224.00000 92 107 134
132.00000 674.00000 228.00000 93 108 135
132.00000 678.00000 224.00000 93 108 135
132.00000 678.00000 228.00000 94 109 136
136.00000 674.00000 228.00000 96 110 135
136.00000 678.00000 228.00000 97 111 138
136.00000 674.00000 232.00000 102 116 141
136.00000 678.00000 232.00000 100 114 141
140.00000 666.00000 232.00000 93 107 128
140.00000 666.00000 236.00000 97 109 130
140.00000 670.00000 232.00000 101 115 138
140.00000 670.00000 236.00000 106 118 141
140.00000 674.00000 232.00000 107 121 146
140.00000 674.00000 236.00000 119 131 156
140.00000 678.00000 232.00000 102 116 143
140.00000 678.00000 236.00000 107 119 144
144.00000 674.00000 236.00000 108 120 145
144.00000 678.00000 236.00000 99 111 136
116.00000 682.00000 184.00000 165 147 167
116.00000 686.00000 184.00000 191 145 167
116.00000 686.00000 188.00000 171 156 167
120.00000 682.00000 184.00000 151 152 170
120.00000 686.00000 184.00000 168 155 168
120.00000 686.00000 188.00000 163 167 164
116.00000 690.00000 188.00000 161 156 173
116.00000 694.00000 188.00000 128 156 180
120.00000 690.00000 188.00000 148 161 172
120.00000 694.00000 188.00000 121 159 180
124.00000 682.00000 184.00000 148 154 173
124.00000 682.00000 188.00000 142 154 173
124.00000 686.00000 184.00000 147 156 172
124.00000 686.00000 188.00000 150 159 169
128.00000 682.00000 184.00000 124 146 183
128.00000 682.00000 188.00000 142 150 178
128.00000 686.00000 188.00000 149 150 178
124.00000 690.00000 188.00000 144 159 174
124.00000 694.00000 188.00000 107 121 148
128.00000 690.00000 188.00000 124 128 153
128.00000 694.00000 188.00000 84 74 111
116.00000 698.00000 188.00000 104 156 186
116.00000 702.00000 188.00000 99 152 186
120.00000 698.00000 188.00000 97 146 177
120.00000 702.00000 188.00000 91 154 186
124.00000 698.00000 188.00000 98 130 158
124.00000 702.00000 188.00000 73 151 173
128.00000 698.00000 188.00000 71 125 148
128.00000 702.00000 188.00000 30 168 176
116.00000 702.00000 192.00000 100 146 184
120.00000 702.00000 192.00000 92 153 181
116.00000 706.00000 192.00000 120 151 186
116.00000 710.00000 192.00000 148 159 196
120.00000 706.00000 192.00000 111 148 179
120.00000 710.00000 192.00000 125 148 180
124.00000 702.00000 192.00000 72 156 177
128.00000 702.00000 192.00000 67 156 173
124.00000 706.00000 192.00000 99 146 173
124.00000 710.00000 192.00000 116 135 163
124.00000 710.00000 196.00000 114 137 162
128.00000 706.00000 192.00000 96 144 165
128.00000 710.00000 192.00000 110 138 162
128.00000 710.00000 196.00000 118 136 162
132.00000 682.00000 184.00000 120 144 187
132.00000 682.00000 188.00000 134 144 184
132.00000 686.00000 188.00000 147 139 183
136.00000 682.00000 188.00000 135 135 179
136.00000 686.00000 188.00000 149 137 184
132.00000 690.00000 188.00000 158 138 180
132.00000 694.00000 188.00000 148 128 172
136.00000 690.00000 188.00000 161 131 180
136.00000 694.00000 188.00000 176 125 181
140.00000 682.00000 188.00000 124 123 172
140.00000 686.00000 188.00000 136 125 176
144.00000 682.00000 188.00000 115 118 166
144.00000 686.00000 188.00000 130 123 173
140.00000 690.00000 188.00000 151 128 180
140.00000 694.00000 188.00000 164 127 180
144.00000 690.00000 188.00000 149 126 178
144.00000 694.00000 188.00000 164 127 180
132.00000 698.00000 188.00000 110 118 154
132.00000 702.00000 188.00000 83 143 167
136.00000 698.00000 188.00000 119 133 170
136.00000 702.00000 188.00000 70 155 173
140.00000 698.00000 188.00000 136 136 178
140.00000 702.00000 188.00000 134 135 170
144.00000 698.00000 188.00000 149 131 173
144.00000 702.00000 188.00000 160 126 168
132.00000 702.00000 192.00000 69 154 170
136.00000 702.00000 192.00000 89 147 166
132.00000 706.00000 192.00000 102 142 163
132.00000 710.00000 192.00000 141 127 154
132.00000 710.00000 196.00000 119 135 157
136.00000 706.00000 192.00000 91 144 162
136.00000 710.00000 192.00000 111 137 157
136.00000 710.00000 196.00000 98 141 157
140.00000 702.00000 192.00000 105 142 168
144.00000 698.00000 192.00000 149 131 173
144.00000 702.00000 192.00000 123 137 168
140.00000 706.00000 192.00000 87 145 160
140.00000 710.00000 192.00000 64 151 157
140.00000 710.00000 196.00000 84 145 157
144.00000 706.00000 192.00000 105 141 163
144.00000 710.00000 192.00000 87 145 160
144.00000 710.00000 196.00000 90 143 157
116.00000 682.00000 216.00000 85 104 137
116.00000 682.00000 220.00000 85 104 137
116.00000 686.00000 216.00000 83 101 137
116.00000 686.00000 220.00000 84 103 136
120.00000 682.00000 216.00000 86 105 136
120.00000 682.00000 220.00000 86 103 137
120.00000 686.00000 220.00000 84 101 135
116.00000 690.00000 220.00000 81 98 132
120.00000 690.00000 220.00000 82 99 133
124.00000 682.00000 220.00000 90 105 136
124.00000 686.00000 220.00000 87 104 136
128.00000 682.00000 220.00000 92 107 136
120.00000 686.00000 224.00000 84 101 135
116.00000 690.00000 224.00000 80 97 131
116.00000 694.00000 224.00000 78 95 129
116.00000 694.00000 228.00000 80 95 127
120.00000 690.00000 224.00000 81 98 132
120.00000 694.00000 224.00000 80 97 131
120.00000 694.00000 228.00000 84 99 131
124.00000 682.00000 224.00000 91 106 137
124.00000 686.00000 224.00000 90 105 137
128.00000 682.00000 224.00000 94 109 138
128.00000 686.00000 224.00000 92 107 138
128.00000 686.00000 228.00000 94 109 140
124.00000 690.00000 224.00000 88 103 135
124.00000 690.00000 228.00000 92 107 139
124.00000 694.00000 224.00000 91 106 138
124.00000 694.00000 228.00000 93 108 140
128.00000 690.00000 224.00000 93 108 140
128.00000 690.00000 228.00000 95 110 141
128.00000 694.00000 228.00000 98 113 145
128.00000 694.00000 232.00000 103 118 149
116.00000 698.00000 228.00000 77 92 124
116.00000 702.00000 228.00000 71 86 118
120.00000 698.00000 228.00000 83 98 130
116.00000 702.00000 232.00000 60 75 107
120.00000 698.00000 232.00000 84 99 131
120.00000 702.00000 232.00000 77 92 124
116.00000 706.00000 232.00000 74 89 120
116.00000 706.00000 236.00000 75 90 121
116.00000 710.00000 236.00000 89 104 135
120.00000 706.00000 232.00000 87 102 133
120.00000 706.00000 236.00000 92 107 138
120.00000 710.00000 236.00000 104 119 150
124.00000 698.00000 228.00000 89 104 136
128.00000 698.00000 228.00000 97 112 144
124.00000 698.00000 232.00000 96 111 142
124.00000 702.00000 232.00000 94 109 140
124.00000 702.00000 236.00000 99 114 145
128.00000 698.00000 232.00000 104 118 149
128.00000 698.00000 236.00000 109 123 154
128.00000 702.00000 232.00000 101 116 147
128.00000 702.00000 236.00000 107 121 152
124.00000 706.00000 232.00000 93 108 139
124.00000 706.00000 236.00000 99 113 144
124.00000 710.00000 236.00000 99 114 145
128.00000 706.00000 236.00000 106 120 151
132.00000 682.00000 224.00000 96 111 142
132.00000 682.00000 228.00000 97 112 141
132.00000 686.00000 224.00000 97 112 143
132.00000 686.00000 228.00000 98 113 144
136.00000 682.00000 228.00000 99 113 142
136.00000 686.00000 228.00000 102 116 147
136.00000 682.00000 232.00000 97 111 140
136.00000 686.00000 232.00000 102 116 145
132.00000 690.00000 228.00000 97 112 143
132.00000 694.00000 228.00000 101 116 147
132.00000 690.00000 232.00000 104 118 149
132.00000 694.00000 232.00000 109 123 154
136.00000 690.00000 232.00000 106 120 149
136.00000 690.00000 236.00000 110 124 153
136.00000 694.00000 232.00000 110 124 153
136.00000 694.00000 236.00000 115 129 158
140.00000 682.00000 232.00000 96 110 139
140.00000 682.00000 236.00000 95 106 134
140.00000 686.00000 232.00000 100 114 143
140.00000 686.00000 236.00000 100 114 143
144.00000 682.00000 236.00000 97 108 136
140.00000 690.00000 236.00000 110 121 151
140.00000 694.00000 236.00000 112 126 155
132.00000 698.00000 232.00000 109 123 154
132.00000 698.00000 236.00000 115 129 158
132.00000 702.00000 236.00000 116 130 159
136.00000 698.00000 236.00000 116 130 159
136.00000 702.00000 236.00000 123 137 166
132.00000 706.00000 236.00000 112 126 157
140.00000 698.00000 236.00000 112 126 155
88.00000 654.00000 240.00000 88 82 83
88.00000 654.00000 244.00000 92 81 77
88.00000 654.00000 248.00000 96 79 73
88.00000 654.00000 252.00000 97 80 74
84.00000 658.00000 240.00000 85 82 87
84.00000 658.00000 244.00000 96 82 78
84.00000 662.00000 240.00000 90 82 82
84.00000 662.00000 244.00000 96 82 79
88.00000 658.00000 240.00000 83 79 82
88.00000 658.00000 244.00000 92 81 77
84.00000 658.00000 248.00000 100 83 77
84.00000 658.00000 252.00000 105 84 77
84.00000 662.00000 248.00000 102 85 77
84.00000 662.00000 252.00000 111 88 77
88.00000 658.00000 248.00000 99 82 76
88.00000 658.00000 252.00000 103 82 75
92.00000 654.00000 240.00000 73 76 83
92.00000 654.00000 244.00000 85 77 77
96.00000 654.00000 240.00000 67 76 86
96.00000 654.00000 244.00000 80 77 82
92.00000 654.00000 248.00000 88 78 78
92.00000 654.00000 252.00000 93 79 76
96.00000 654.00000 248.00000 83 79 82
96.00000 654.00000 252.00000 92 81 79
92.00000 658.00000 240.00000 66 75 85
96.00000 658.00000 240.00000 67 76 86
88.00000 654.00000 256.00000 101 80 73
88.00000 654.00000 260.00000 104 81 72
84.00000 650.00000 268.00000 152 108 84
84.00000 654.00000 264.00000 135 99 79
84.00000 654.00000 268.00000 144 104 81
88.00000 654.00000 264.00000 134 98 80
88.00000 654.00000 268.00000 146 104 81
84.00000 658.00000 256.00000 104 83 74
84.00000 658.00000 260.00000 110 85 75
88.00000 658.00000 256.00000 103 82 73
88.00000 658.00000 260.00000 105 82 73
84.00000 658.00000 264.00000 129 95 79
88.00000 658.00000 264.00000 122 92 77
92.00000 654.00000 256.00000 105 82 73
92.00000 654.00000 260.00000 107 82 72
96.00000 654.00000 256.00000 103 82 75
96.00000 654.00000 260.00000 109 82 72
92.00000 654.00000 264.00000 120 87 73
92.00000 654.00000 268.00000 138 98 79
96.00000 654.00000 264.00000 118 84 70
96.00000 654.00000 268.00000 121 90 79
100.00000 654.00000 240.00000 75 82 90
100.00000 654.00000 244.00000 82 81 88
104.00000 654.00000 240.00000 77 86 96
104.00000 654.00000 244.00000 80 83 90
100.00000 654.00000 248.00000 85 82 87
100.00000 654.00000 252.00000 89 81 81
104.00000 654.00000 248.00000 83 82 89
104.00000 654.00000 252.00000 87 84 91
100.00000 658.00000 240.00000 68 78 90
108.00000 654.00000 240.00000 75 84 94
108.00000 654.00000 244.00000 78 83 94
112.00000 654.00000 240.00000 72 82 94
112.00000 654.00000 244.00000 75 84 94
108.00000 650.00000 252.00000 85 94 110
108.00000 654.00000 248.00000 80 83 92
108.00000 654.00000 252.00000 85 94 110
112.00000 650.00000 248.00000 79 85 100
112.00000 650.00000 252.00000 82 91 107
112.00000 654.00000 248.00000 79 88 102
112.00000 654.00000 252.00000 83 93 111
100.00000 654.00000 256.00000 100 83 79
100.00000 654.00000 260.00000 106 85 80
104.00000 650.00000 256.00000 92 91 101
104.00000 650.00000 260.00000 94 95 109
104.00000 654.00000 256.00000 95 92 100
104.00000 654.00000 260.00000 103 91 94
100.00000 650.00000 264.00000 109 91 91
100.00000 650.00000 268.00000 110 93 95
100.00000 654.00000 264.00000 109 91 91
100.00000 654.00000 268.00000 116 92 88
104.00000 650.00000 264.00000 106 95 102
104.00000 650.00000 268.00000 106 99 110
104.00000 654.00000 264.00000 104 97 106
108.00000 650.00000 256.00000 89 101 124
108.00000 650.00000 260.00000 88 102 127
108.00000 654.00000 256.00000 89 95 112
112.00000 650.00000 256.00000 87 105 131
112.00000 650.00000 260.00000 87 106 136
108.00000 650.00000 264.00000 91 105 132
108.00000 650.00000 268.00000 104 100 115
112.00000 650.00000 264.00000 86 110 149
112.00000 650.00000 268.00000 91 105 134
84.00000 650.00000 272.00000 158 112 87
84.00000 650.00000 276.00000 164 114 88
84.00000 654.00000 272.00000 157 111 86
88.00000 650.00000 272.00000 155 109 85
88.00000 650.00000 276.00000 156 110 85
88.00000 654.00000 272.00000 150 106 84
92.00000 650.00000 272.00000 148 104 82
92.00000 650.00000 276.00000 149 105 83
92.00000 654.00000 272.00000 139 99 80
96.00000 650.00000 272.00000 139 99 82
96.00000 650.00000 276.00000 145 103 82
96.00000 654.00000 272.00000 134 97 82
92.00000 650.00000 280.00000 146 104 83
96.00000 650.00000 280.00000 145 102 84
100.00000 650.00000 272.00000 133 96 83
100.00000 650.00000 276.00000 135 97 82
100.00000 654.00000 272.00000 126 95 84
104.00000 650.00000 272.00000 114 97 101
104.00000 650.00000 276.00000 129 98 89
100.00000 650.00000 280.00000 136 99 86
104.00000 650.00000 280.00000 131 98 89
104.00000 650.00000 284.00000 133 98 90
108.00000 650.00000 272.00000 112 98 103
108.00000 650.00000 276.00000 115 97 101
112.00000 650.00000 272.00000 105 98 109
112.00000 650.00000 276.00000 108 96 105
108.00000 650.00000 280.00000 128 98 93
108.00000 650.00000 284.00000 134 99 91
112.00000 650.00000 280.00000 119 97 98
84.00000 686.00000 240.00000 68 80 101
84.00000 690.00000 240.00000 65 75 96
84.00000 694.00000 240.00000 62 72 93
84.00000 694.00000 244.00000 56 66 87
88.00000 694.00000 240.00000 58 67 91
84.00000 698.00000 240.00000 56 66 87
84.00000 698.00000 244.00000 51 59 81
84.00000 702.00000 244.00000 52 62 83
88.00000 698.00000 240.00000 54 66 89
88.00000 698.00000 244.00000 53 62 86
88.00000 702.00000 240.00000 55 67 92
88.00000 702.00000 244.00000 53 62 86
84.00000 698.00000 248.00000 52 62 83
84.00000 702.00000 248.00000 53 62 86
88.00000 702.00000 248.00000 55 64 88
84.00000 706.00000 248.00000 55 64 88
84.00000 706.00000 252.00000 56 65 89
84.00000 710.00000 252.00000 58 67 93
88.00000 706.00000 248.00000 55 67 92
88.00000 706.00000 252.00000 58 67 93
88.00000 710.00000 248.00000 59 71 96
88.00000 710.00000 252.00000 61 70 96
92.00000 702.00000 240.00000 58 69 97
92.00000 702.00000 244.00000 58 69 97
96.00000 702.00000 240.00000 55 69 96
96.00000 702.00000 244.00000 54 68 97
92.00000 706.00000 244.00000 59 70 98
96.00000 706.00000 240.00000 54 68 95
96.00000 706.00000 244.00000 56 70 97
96.00000 710.00000 244.00000 57 71 98
92.00000 706.00000 248.00000 60 71 99
92.00000 710.00000 248.00000 63 74 102
92.00000 710.00000 252.00000 64 75 103
96.00000 706.00000 248.00000 61 72 100
96.00000 710.00000 248.00000 61 72 100
96.00000 710.00000 252.00000 69 80 108
100.00000 702.00000 240.00000 47 61 90
100.00000 706.00000 240.00000 50 64 91
100.00000 706.00000 244.00000 53 67 94
100.00000 710.00000 240.00000 50 64 91
100.00000 710.00000 244.00000 53 67 94
104.00000 706.00000 240.00000 44 58 87
104.00000 710.00000 240.00000 53 67 94
104.00000 710.00000 244.00000 47 61 88
100.00000 710.00000 248.00000 59 70 98
108.00000 710.00000 240.00000 62 76 105
112.00000 710.00000 240.00000 88 103 132
116.00000 650.00000 240.00000 69 82 93
116.00000 650.00000 244.00000 74 84 96
116.00000 654.00000 240.00000 69 82 93
116.00000 654.00000 244.00000 75 85 97
120.00000 650.00000 240.00000 70 83 94
120.00000 650.00000 244.00000 75 88 99
120.00000 654.00000 240.00000 64 77 88
116.00000 650.00000 248.00000 82 92 108
116.00000 650.00000 252.00000 86 100 121
116.00000 654.00000 248.00000 79 89 103
120.00000 650.00000 248.00000 84 97 110
120.00000 650.00000 252.00000 91 106 124
124.00000 650.00000 240.00000 76 89 100
124.00000 650.00000 244.00000 85 98 109
128.00000 650.00000 240.00000 85 98 111
128.00000 650.00000 244.00000 90 103 114
124.00000 650.00000 248.00000 90 103 114
124.00000 650.00000 252.00000 95 110 123
128.00000 650.00000 248.00000 95 108 119
128.00000 650.00000 252.00000 104 117 126
116.00000 650.00000 256.00000 91 107 129
116.00000 650.00000 260.00000 91 109 135
120.00000 650.00000 256.00000 94 112 134
120.00000 650.00000 260.00000 91 110 136
116.00000 650.00000 264.00000 88 107 137
116.00000 650.00000 268.00000 86 103 134
120.00000 650.00000 264.00000 88 109 140
120.00000 650.00000 268.00000 87 105 133
124.00000 650.00000 256.00000 94 112 132
124.00000 650.00000 260.00000 90 108 134
128.00000 650.00000 256.00000 98 113 130
128.00000 650.00000 260.00000 89 107 131
124.00000 650.00000 264.00000 88 104 128
124.00000 650.00000 268.00000 87 101 126
128.00000 650.00000 264.00000 87 103 127
128.00000 650.00000 268.00000 79 94 121
132.00000 650.00000 240.00000 86 101 116
132.00000 650.00000 244.00000 103 118 133
136.00000 650.00000 240.00000 95 110 125
136.00000 650.00000 244.00000 106 121 138
136.00000 654.00000 240.00000 92 107 124
136.00000 654.00000 244.00000 108 123 140
132.00000 650.00000 248.00000 115 130 145
132.00000 650.00000 252.00000 123 138 153
136.00000 650.00000 248.00000 124 139 156
136.00000 650.00000 252.00000 151 166 184
136.00000 654.00000 248.00000 124 139 157
136.00000 658.00000 240.00000 95 110 128
140.00000 654.00000 244.00000 111 126 144
140.00000 650.00000 248.00000 129 144 162
140.00000 650.00000 252.00000 132 148 168
140.00000 654.00000 248.00000 122 137 155
140.00000 654.00000 252.00000 136 152 172
144.00000 654.00000 252.00000 136 152 176
140.00000 658.00000 240.00000 93 107 128
140.00000 658.00000 244.00000 100 114 135
140.00000 662.00000 240.00000 95 109 130
140.00000 662.00000 244.00000 96 110 133
144.00000 662.00000 244.00000 99 113 136
140.00000 658.00000 248.00000 119 135 157
140.00000 658.00000 252.00000 129 145 167
144.00000 658.00000 248.00000 121 137 161
144.00000 658.00000 252.00000 131 149 173
144.00000 662.00000 248.00000 111 127 151
144.00000 662.00000 252.00000 120 136 160
132.00000 650.00000 260.00000 94 110 134
136.00000 650.00000 256.00000 131 147 167
136.00000 650.00000 260.00000 95 111 135
132.00000 650.00000 264.00000 79 94 121
132.00000 650.00000 268.00000 63 78 105
136.00000 650.00000 264.00000 79 94 121
136.00000 650.00000 268.00000 82 97 126
136.00000 654.00000 268.00000 102 119 150
140.00000 650.00000 256.00000 132 148 170
140.00000 650.00000 260.00000 112 130 156
140.00000 654.00000 256.00000 126 144 170
140.00000 654.00000 260.00000 111 130 160
144.00000 654.00000 256.00000 136 154 180
144.00000 654.00000 260.00000 123 142 173
140.00000 650.00000 264.00000 101 118 149
140.00000 650.00000 268.00000 106 123 154
140.00000 654.00000 264.00000 120 139 170
140.00000 654.00000 268.00000 106 125 156
144.00000 654.00000 264.00000 137 156 187
144.00000 654.00000 268.00000 121 142 175
144.00000 658.00000 256.00000 124 142 170
144.00000 658.00000 260.00000 122 141 172
144.00000 662.00000 256.00000 114 132 158
144.00000 662.00000 260.00000 112 131 161
140.00000 658.00000 268.00000 108 133 169
144.00000 658.00000 264.00000 118 139 170
144.00000 658.00000 268.00000 103 127 166
144.00000 662.00000 264.00000 100 121 154
144.00000 662.00000 268.00000 100 121 156
140.00000 666.00000 240.00000 96 110 131
140.00000 666.00000 244.00000 93 107 130
140.00000 670.00000 240.00000 94 106 129
144.00000 666.00000 240.00000 91 103 126
144.00000 666.00000 244.00000 89 103 126
144.00000 670.00000 240.00000 85 97 122
144.00000 670.00000 244.00000 76 88 113
144.00000 666.00000 248.00000 93 107 132
144.00000 666.00000 252.00000 106 120 145
144.00000 670.00000 248.00000 83 97 122
140.00000 674.00000 240.00000 99 111 136
144.00000 674.00000 240.00000 81 93 118
144.00000 674.00000 244.00000 59 71 96
144.00000 678.00000 240.00000 76 88 113
144.00000 678.00000 244.00000 72 84 109
144.00000 666.00000 264.00000 99 120 153
144.00000 666.00000 268.00000 97 115 151
144.00000 670.00000 268.00000 95 113 149
116.00000 650.00000 272.00000 91 97 119
116.00000 650.00000 276.00000 99 95 112
120.00000 650.00000 272.00000 88 90 113
120.00000 650.00000 276.00000 82 84 105
124.00000 650.00000 272.00000 67 76 102
128.00000 650.00000 272.00000 26 37 67
128.00000 650.00000 284.00000 53 47 67
120.00000 650.00000 292.00000 111 79 80
116.00000 650.00000 300.00000 158 105 85
120.00000 650.00000 296.00000 118 83 81
120.00000 650.00000 300.00000 140 95 84
120.00000 654.00000 296.00000 138 93 83
120.00000 654.00000 300.00000 145 97 84
120.00000 658.00000 300.00000 152 99 85
124.00000 650.00000 288.00000 82 63 75
124.00000 650.00000 292.00000 96 71 77
124.00000 654.00000 292.00000 97 72 80
128.00000 650.00000 288.00000 70 57 72
128.00000 650.00000 292.00000 80 62 76
128.00000 654.00000 288.00000 77 62 75
128.00000 654.00000 292.00000 88 67 78
124.00000 650.00000 296.00000 105 77 79
124.00000 654.00000 296.00000 119 84 82
124.00000 654.00000 300.00000 148 97 85
128.00000 654.00000 296.00000 107 76 81
128.00000 658.00000 292.00000 100 75 83
124.00000 658.00000 296.00000 130 88 84
124.00000 658.00000 300.00000 141 94 84
124.00000 662.00000 300.00000 145 94 85
128.00000 658.00000 296.00000 124 85 84
128.00000 658.00000 300.00000 140 92 85
128.00000 662.00000 296.00000 127 85 85
128.00000 662.00000 300.00000 137 89 84
128.00000 666.00000 296.00000 135 91 91
128.00000 666.00000 300.00000 142 88 82
128.00000 670.00000 300.00000 140 94 93
132.00000 650.00000 272.00000 97 112 143
132.00000 650.00000 276.00000 153 167 198
136.00000 650.00000 272.00000 114 131 165
136.00000 650.00000 276.00000 116 133 167
136.00000 654.00000 272.00000 100 121 158
136.00000 654.00000 276.00000 82 103 140
132.00000 650.00000 280.00000 92 101 131
132.00000 650.00000 284.00000 58 53 76
136.00000 650.00000 280.00000 51 62 94
136.00000 650.00000 284.00000 52 57 86
136.00000 654.00000 280.00000 59 72 105
136.00000 654.00000 284.00000 46 53 84
140.00000 654.00000 272.00000 104 128 167
140.00000 654.00000 276.00000 81 105 148
140.00000 654.00000 280.00000 57 75 113
140.00000 654.00000 284.00000 46 59 92
140.00000 658.00000 272.00000 94 122 165
140.00000 658.00000 276.00000 83 114 163
144.00000 658.00000 272.00000 98 125 167
144.00000 658.00000 276.00000 86 114 157
144.00000 662.00000 272.00000 89 113 154
144.00000 662.00000 276.00000 78 102 145
140.00000 658.00000 280.00000 58 78 118
140.00000 658.00000 284.00000 37 48 81
144.00000 658.00000 280.00000 64 84 126
144.00000 658.00000 284.00000 55 68 103
144.00000 662.00000 280.00000 69 86 124
144.00000 662.00000 284.00000 68 73 104
132.00000 650.00000 288.00000 64 56 76
132.00000 654.00000 288.00000 81 66 81
132.00000 654.00000 292.00000 97 72 80
136.00000 650.00000 288.00000 64 58 78
136.00000 654.00000 288.00000 68 62 84
132.00000 658.00000 288.00000 83 70 87
132.00000 658.00000 292.00000 94 75 87
132.00000 662.00000 292.00000 104 83 95
136.00000 658.00000 288.00000 72 67 92
136.00000 662.00000 288.00000 74 75 103
136.00000 662.00000 292.00000 89 79 100
132.00000 662.00000 296.00000 121 89 94
140.00000 658.00000 288.00000 58 62 91
140.00000 662.00000 288.00000 79 74 99
140.00000 662.00000 292.00000 89 79 100
144.00000 658.00000 288.00000 63 67 96
144.00000 662.00000 288.00000 72 73 101
140.00000 666.00000 276.00000 87 107 147
140.00000 670.00000 276.00000 87 101 138
144.00000 666.00000 272.00000 93 111 147
144.00000 666.00000 276.00000 85 103 143
144.00000 670.00000 272.00000 92 109 145
144.00000 670.00000 276.00000 91 104 139
140.00000 666.00000 280.00000 89 97 131
140.00000 666.00000 284.00000 89 96 129
140.00000 670.00000 280.00000 86 93 126
140.00000 670.00000 284.00000 86 91 122
144.00000 666.00000 280.00000 89 102 137
144.00000 666.00000 284.00000 86 93 126
144.00000 670.00000 280.00000 85 92 125
144.00000 670.00000 284.00000 82 82 110
144.00000 674.00000 276.00000 93 106 141
140.00000 674.00000 280.00000 85 90 121
140.00000 674.00000 284.00000 80 78 104
144.00000 674.00000 280.00000 87 94 125
144.00000 674.00000 284.00000 79 74 99
144.00000 678.00000 280.00000 85 89 118
144.00000 678.00000 284.00000 79 79 105
132.00000 666.00000 292.00000 117 92 104
136.00000 666.00000 292.00000 112 96 116
132.00000 666.00000 296.00000 134 98 104
132.00000 666.00000 300.00000 140 96 96
132.00000 670.00000 300.00000 142 100 102
136.00000 666.00000 296.00000 129 102 115
136.00000 670.00000 296.00000 140 114 124
136.00000 670.00000 300.00000 137 104 114
136.00000 674.00000 300.00000 126 99 112
140.00000 666.00000 288.00000 85 85 113
140.00000 666.00000 292.00000 101 88 107
140.00000 670.00000 288.00000 82 80 106
140.00000 670.00000 292.00000 80 70 93
144.00000 666.00000 288.00000 85 80 105
144.00000 670.00000 288.00000 80 74 97
144.00000 670.00000 292.00000 76 64 85
140.00000 666.00000 296.00000 106 88 106
140.00000 670.00000 296.00000 121 99 114
140.00000 670.00000 300.00000 118 96 111
140.00000 674.00000 288.00000 77 64 85
140.00000 674.00000 292.00000 87 69 87
140.00000 678.00000 288.00000 70 60 83
140.00000 678.00000 292.00000 73 57 77
144.00000 674.00000 288.00000 71 61 82
144.00000 674.00000 292.00000 73 57 77
144.00000 678.00000 288.00000 68 55 76
144.00000 678.00000 292.00000 61 43 61
140.00000 674.00000 296.00000 91 73 91
140.00000 674.00000 300.00000 114 92 107
140.00000 678.00000 296.00000 80 67 86
140.00000 678.00000 300.00000 89 76 97
116.00000 710.00000 240.00000 121 136 165
120.00000 710.00000 240.00000 115 129 158
124.00000 706.00000 240.00000 108 122 153
124.00000 710.00000 240.00000 107 121 152
128.00000 706.00000 240.00000 104 118 149
128.00000 710.00000 240.00000 103 117 148
128.00000 710.00000 244.00000 98 112 141
140.00000 686.00000 240.00000 98 109 137
144.00000 682.00000 240.00000 82 93 121
144.00000 682.00000 244.00000 81 92 120
144.00000 686.00000 240.00000 98 109 137
144.00000 686.00000 244.00000 87 98 126
144.00000 682.00000 248.00000 84 95 123
144.00000 686.00000 248.00000 88 99 127
140.00000 690.00000 240.00000 107 118 146
140.00000 690.00000 244.00000 114 125 153
140.00000 694.00000 240.00000 109 120 148
140.00000 694.00000 244.00000 108 119 147
144.00000 690.00000 240.00000 107 118 146
144.00000 690.00000 244.00000 107 118 146
144.00000 694.00000 244.00000 101 112 140
144.00000 690.00000 248.00000 87 98 126
144.00000 690.00000 252.00000 79 90 120
144.00000 694.00000 248.00000 95 106 134
144.00000 694.00000 252.00000 79 90 120
144.00000 690.00000 260.00000 54 68 99
144.00000 694.00000 256.00000 69 80 110
144.00000 694.00000 260.00000 65 79 108
144.00000 690.00000 264.00000 66 80 109
144.00000 690.00000 268.00000 70 84 113
144.00000 694.00000 264.00000 76 87 117
144.00000 694.00000 268.00000 77 88 118
132.00000 702.00000 240.00000 100 114 143
136.00000 698.00000 240.00000 102 116 145
136.00000 702.00000 240.00000 88 102 131
136.00000 702.00000 244.00000 72 83 113
132.00000 706.00000 240.00000 96 110 139
132.00000 706.00000 244.00000 92 103 133
132.00000 710.00000 240.00000 101 115 144
132.00000 710.00000 244.00000 98 109 139
136.00000 706.00000 240.00000 100 111 141
136.00000 706.00000 244.00000 88 99 129
136.00000 710.00000 244.00000 102 113 143
132.00000 710.00000 248.00000 100 111 141
136.00000 706.00000 248.00000 90 101 131
136.00000 710.00000 248.00000 97 108 138
136.00000 710.00000 252.00000 96 107 137
140.00000 698.00000 240.00000 97 108 138
140.00000 698.00000 244.00000 90 101 131
140.00000 702.00000 240.00000 96 110 139
140.00000 702.00000 244.00000 91 102 132
144.00000 698.00000 244.00000 95 106 134
140.00000 698.00000 248.00000 90 101 131
140.00000 702.00000 248.00000 86 97 127
140.00000 702.00000 252.00000 90 101 131
144.00000 698.00000 248.00000 96 107 135
144.00000 698.00000 252.00000 88 99 129
144.00000 702.00000 248.00000 90 101 131
144.00000 702.00000 252.00000 89 100 130
140.00000 706.00000 244.00000 88 99 129
140.00000 706.00000 248.00000 90 101 131
140.00000 706.00000 252.00000 96 107 137
140.00000 710.00000 248.00000 95 106 136
140.00000 710.00000 252.00000 95 106 136
144.00000 706.00000 252.00000 91 102 132
144.00000 698.00000 256.00000 74 85 115
144.00000 698.00000 260.00000 72 83 113
144.00000 702.00000 256.00000 85 96 126
144.00000 702.00000 260.00000 80 91 121
144.00000 698.00000 264.00000 79 90 120
144.00000 698.00000 268.00000 83 94 124
144.00000 702.00000 264.00000 81 92 122
144.00000 702.00000 268.00000 85 96 126
140.00000 706.00000 256.00000 91 102 132
140.00000 706.00000 260.00000 93 102 132
140.00000 710.00000 256.00000 94 105 135
140.00000 710.00000 260.00000 95 104 134
144.00000 706.00000 256.00000 88 99 129
144.00000 706.00000 260.00000 88 99 129
140.00000 706.00000 264.00000 96 105 135
140.00000 706.00000 268.00000 98 107 135
140.00000 710.00000 264.00000 96 105 135
140.00000 710.00000 268.00000 98 107 135
144.00000 706.00000 264.00000 87 98 128
144.00000 706.00000 268.00000 93 102 132
140.00000 694.00000 276.00000 86 100 129
144.00000 690.00000 272.00000 78 89 119
144.00000 690.00000 276.00000 81 92 122
144.00000 694.00000 272.00000 81 92 122
144.00000 694.00000 276.00000 84 93 121
140.00000 694.00000 284.00000 77 79 100
144.00000 690.00000 280.00000 83 88 115
144.00000 690.00000 284.00000 75 77 100
144.00000 694.00000 280.00000 88 96 122
144.00000 694.00000 284.00000 80 84 107
144.00000 682.00000 288.00000 65 52 71
144.00000 682.00000 292.00000 65 53 72
144.00000 686.00000 288.00000 66 56 77
144.00000 686.00000 292.00000 64 52 71
140.00000 682.00000 296.00000 77 65 88
140.00000 682.00000 300.00000 78 72 97
140.00000 686.00000 300.00000 71 63 86
144.00000 682.00000 296.00000 68 56 77
144.00000 682.00000 300.00000 69 61 83
144.00000 686.00000 296.00000 60 50 71
144.00000 686.00000 300.00000 63 55 77
140.00000 694.00000 288.00000 67 63 82
140.00000 694.00000 292.00000 58 49 63
144.00000 690.00000 288.00000 70 66 87
144.00000 690.00000 292.00000 59 50 68
144.00000 694.00000 288.00000 67 61 81
144.00000 694.00000 292.00000 60 52 68
140.00000 694.00000 296.00000 74 66 82
144.00000 690.00000 296.00000 50 41 59
144.00000 690.00000 300.00000 45 39 59
144.00000 694.00000 296.00000 43 35 53
144.00000 694.00000 300.00000 28 24 43
144.00000 698.00000 272.00000 88 99 129
144.00000 698.00000 276.00000 90 101 131
144.00000 702.00000 272.00000 94 103 133
144.00000 702.00000 276.00000 98 107 135
140.00000 698.00000 280.00000 97 105 129
140.00000 698.00000 284.00000 112 118 140
140.00000 702.00000 284.00000 130 136 158
144.00000 698.00000 280.00000 106 112 134
144.00000 698.00000 284.00000 108 112 133
144.00000 702.00000 280.00000 113 118 143
144.00000 702.00000 284.00000 117 123 145
140.00000 706.00000 272.00000 100 109 137
140.00000 706.00000 276.00000 102 111 139
140.00000 710.00000 272.00000 100 109 137
140.00000 710.00000 276.00000 105 114 142
144.00000 706.00000 272.00000 98 107 135
144.00000 706.00000 276.00000 102 111 139
140.00000 706.00000 280.00000 108 116 142
140.00000 706.00000 284.00000 128 134 156
140.00000 710.00000 280.00000 111 120 146
140.00000 710.00000 284.00000 119 127 151
144.00000 706.00000 280.00000 118 123 148
144.00000 706.00000 284.00000 125 131 153
140.00000 698.00000 288.00000 91 89 108
140.00000 698.00000 292.00000 111 110 126
140.00000 702.00000 288.00000 120 122 140
140.00000 702.00000 292.00000 137 139 157
144.00000 702.00000 288.00000 132 136 157
140.00000 698.00000 296.00000 102 98 115
140.00000 698.00000 300.00000 89 88 104
140.00000 702.00000 296.00000 115 116 132
140.00000 702.00000 300.00000 107 108 124
144.00000 698.00000 296.00000 84 80 97
144.00000 698.00000 300.00000 67 63 82
140.00000 706.00000 288.00000 129 135 155
140.00000 706.00000 292.00000 127 135 155
140.00000 710.00000 288.00000 124 134 155
140.00000 710.00000 292.00000 117 131 152
144.00000 706.00000 288.00000 127 135 155
144.00000 710.00000 288.00000 124 134 153
144.00000 710.00000 292.00000 121 131 150
140.00000 706.00000 296.00000 121 126 145
140.00000 706.00000 300.00000 115 117 135
144.00000 706.00000 296.00000 118 124 143
144.00000 706.00000 300.00000 116 118 136
144.00000 710.00000 296.00000 120 128 148
144.00000 710.00000 300.00000 118 124 143
84.00000 714.00000 192.00000 200 203 237
84.00000 714.00000 196.00000 193 193 231
84.00000 718.00000 192.00000 190 190 228
84.00000 718.00000 196.00000 189 189 231
88.00000 714.00000 192.00000 179 178 214
88.00000 718.00000 192.00000 180 179 219
88.00000 718.00000 196.00000 184 180 223
84.00000 722.00000 196.00000 186 181 232
84.00000 726.00000 196.00000 185 182 243
88.00000 722.00000 196.00000 182 174 222
88.00000 726.00000 196.00000 183 175 225
84.00000 722.00000 200.00000 188 183 234
84.00000 726.00000 200.00000 180 173 223
88.00000 726.00000 200.00000 179 171 219
92.00000 714.00000 192.00000 159 153 190
92.00000 718.00000 192.00000 163 156 193
92.00000 718.00000 196.00000 173 167 204
96.00000 714.00000 192.00000 146 135 175
96.00000 718.00000 192.00000 159 145 184
96.00000 718.00000 196.00000 171 160 198
92.00000 722.00000 196.00000 180 169 207
92.00000 726.00000 196.00000 184 173 213
96.00000 722.00000 192.00000 179 164 202
96.00000 722.00000 196.00000 181 166 205
96.00000 726.00000 196.00000 188 173 211
92.00000 726.00000 200.00000 186 175 215
96.00000 726.00000 200.00000 195 180 214
84.00000 730.00000 200.00000 172 165 211
84.00000 730.00000 204.00000 165 158 197
84.00000 734.00000 204.00000 137 131 170
88.00000 730.00000 200.00000 187 177 215
88.00000 730.00000 204.00000 187 177 214
88.00000 734.00000 204.00000 167 160 196
84.00000 738.00000 204.00000 161 156 189
88.00000 738.00000 204.00000 179 170 200
88.00000 742.00000 204.00000 174 169 194
92.00000 730.00000 200.00000 201 188 223
92.00000 734.00000 200.00000 219 202 232
92.00000 734.00000 204.00000 235 221 248
96.00000 730.00000 200.00000 205 188 220
96.00000 734.00000 200.00000 218 198 226
96.00000 734.00000 204.00000 219 202 230
92.00000 738.00000 204.00000 193 183 209
92.00000 742.00000 204.00000 164 158 181
96.00000 738.00000 204.00000 205 188 216
96.00000 742.00000 204.00000 169 177 197
100.00000 714.00000 192.00000 120 106 153
100.00000 718.00000 192.00000 161 146 187
104.00000 714.00000 192.00000 157 143 188
104.00000 718.00000 192.00000 167 152 193
100.00000 722.00000 192.00000 198 178 215
100.00000 722.00000 196.00000 191 174 208
100.00000 726.00000 196.00000 193 173 208
104.00000 722.00000 192.00000 184 167 203
104.00000 722.00000 196.00000 183 169 200
104.00000 726.00000 196.00000 189 170 200
100.00000 726.00000 200.00000 196 175 206
104.00000 726.00000 200.00000 189 169 197
108.00000 714.00000 192.00000 182 170 215
108.00000 718.00000 192.00000 162 156 192
112.00000 714.00000 192.00000 151 158 194
112.00000 718.00000 192.00000 155 158 193
112.00000 718.00000 196.00000 136 150 177
108.00000 722.00000 192.00000 164 159 190
108.00000 722.00000 196.00000 167 162 191
108.00000 726.00000 196.00000 184 171 200
112.00000 722.00000 192.00000 157 158 188
112.00000 722.00000 196.00000 153 157 182
112.00000 726.00000 196.00000 181 172 200
100.00000 730.00000 200.00000 208 184 213
100.00000 734.00000 200.00000 206 183 210
100.00000 734.00000 204.00000 217 186 217
104.00000 730.00000 200.00000 197 181 206
104.00000 734.00000 200.00000 190 180 204
100.00000 738.00000 200.00000 175 185 204
100.00000 738.00000 204.00000 175 185 204
100.00000 742.00000 204.00000 136 185 195
104.00000 738.00000 200.00000 177 181 202
104.00000 738.00000 204.00000 174 184 203
104.00000 742.00000 204.00000 162 170 190
108.00000 730.00000 196.00000 192 179 206
112.00000 730.00000 196.00000 202 188 215
108.00000 730.00000 200.00000 191 179 203
108.00000 734.00000 200.00000 177 179 200
112.00000 730.00000 200.00000 188 182 205
112.00000 734.00000 200.00000 170 178 198
108.00000 738.00000 200.00000 167 179 198
108.00000 738.00000 204.00000 173 168 191
108.00000 742.00000 204.00000 176 142 170
112.00000 738.00000 200.00000 171 166 189
112.00000 742.00000 200.00000 173 143 170
112.00000 742.00000 204.00000 185 122 157
84.00000 738.00000 208.00000 168 165 196
84.00000 742.00000 208.00000 176 180 205
88.00000 738.00000 208.00000 174 171 200
88.00000 742.00000 208.00000 177 179 200
92.00000 742.00000 208.00000 164 180 198
96.00000 742.00000 208.00000 150 176 192
100.00000 742.00000 208.00000 148 182 196
104.00000 742.00000 208.00000 158 184 200
108.00000 746.00000 204.00000 191 101 142
112.00000 746.00000 204.00000 207 81 130
84.00000 746.00000 208.00000 185 197 216
84.00000 746.00000 212.00000 172 191 208
84.00000 750.00000 212.00000 159 179 198
88.00000 746.00000 208.00000 180 190 209
88.00000 746.00000 212.00000 176 195 212
88.00000 750.00000 212.00000 154 188 202
84.00000 746.00000 216.00000 191 181 209
84.00000 750.00000 216.00000 171 179 201
84.00000 750.00000 220.00000 177 175 199
88.00000 750.00000 216.00000 147 181 195
84.00000 754.00000 216.00000 97 158 166
84.00000 754.00000 220.00000 145 171 187
84.00000 758.00000 220.00000 163 182 198
88.00000 754.00000 216.00000 137 157 174
88.00000 754.00000 220.00000 168 131 161
88.00000 758.00000 220.00000 165 120 151
92.00000 746.00000 208.00000 165 185 202
92.00000 746.00000 212.00000 164 194 209
92.00000 750.00000 208.00000 162 170 189
92.00000 750.00000 212.00000 153 204 213
96.00000 746.00000 208.00000 165 145 170
96.00000 750.00000 208.00000 166 121 150
96.00000 750.00000 212.00000 159 147 170
92.00000 750.00000 216.00000 176 199 214
92.00000 754.00000 212.00000 179 177 198
96.00000 754.00000 212.00000 158 116 144
92.00000 754.00000 216.00000 225 211 235
92.00000 754.00000 220.00000 187 129 163
92.00000 758.00000 216.00000 208 145 178
92.00000 758.00000 220.00000 163 47 92
96.00000 754.00000 216.00000 207 169 196
96.00000 758.00000 216.00000 236 179 210
96.00000 758.00000 220.00000 179 100 134
84.00000 754.00000 224.00000 243 188 224
84.00000 758.00000 224.00000 191 178 199
88.00000 758.00000 224.00000 185 144 172
92.00000 762.00000 220.00000 144 73 103
96.00000 762.00000 220.00000 138 73 100
96.00000 766.00000 220.00000 114 74 91
84.00000 762.00000 224.00000 148 200 202
84.00000 766.00000 224.00000 158 150 164
84.00000 766.00000 228.00000 170 134 152
88.00000 762.00000 224.00000 145 137 151
88.00000 766.00000 224.00000 154 117 135
84.00000 766.00000 232.00000 170 143 161
84.00000 766.00000 236.00000 169 184 195
84.00000 770.00000 228.00000 176 96 122
88.00000 770.00000 224.00000 161 76 102
88.00000 770.00000 228.00000 191 45 85
88.00000 774.00000 228.00000 164 60 90
84.00000 770.00000 232.00000 169 108 132
84.00000 770.00000 236.00000 162 135 151
88.00000 770.00000 232.00000 169 89 115
88.00000 770.00000 236.00000 148 112 128
88.00000 774.00000 232.00000 151 77 100
88.00000 774.00000 236.00000 135 88 105
92.00000 762.00000 224.00000 131 97 117
92.00000 766.00000 224.00000 119 87 101
96.00000 762.00000 224.00000 119 90 106
96.00000 766.00000 224.00000 89 96 101
92.00000 770.00000 224.00000 138 68 88
92.00000 770.00000 228.00000 161 57 85
92.00000 774.00000 224.00000 142 63 81
92.00000 774.00000 228.00000 151 57 81
96.00000 770.00000 224.00000 121 76 88
96.00000 774.00000 224.00000 136 63 75
96.00000 774.00000 228.00000 140 62 80
92.00000 774.00000 232.00000 129 65 82
92.00000 774.00000 236.00000 105 74 85
96.00000 774.00000 232.00000 129 65 82
96.00000 774.00000 236.00000 120 69 85
100.00000 746.00000 208.00000 164 127 156
100.00000 750.00000 208.00000 156 109 138
100.00000 750.00000 212.00000 194 46 98
104.00000 746.00000 208.00000 157 139 161
104.00000 750.00000 208.00000 117 205 203
100.00000 754.00000 208.00000 158 79 113
100.00000 754.00000 212.00000 160 73 111
100.00000 758.00000 212.00000 128 95 119
104.00000 754.00000 208.00000 144 122 143
104.00000 754.00000 212.00000 156 83 116
104.00000 758.00000 212.00000 147 90 119
100.00000 758.00000 216.00000 170 116 142
104.00000 758.00000 216.00000 155 90 119
108.00000 746.00000 208.00000 190 82 125
108.00000 750.00000 208.00000 152 119 145
112.00000 746.00000 208.00000 182 78 120
112.00000 750.00000 208.00000 150 71 107
108.00000 754.00000 208.00000 150 108 134
108.00000 754.00000 212.00000 140 81 111
108.00000 758.00000 212.00000 142 76 107
112.00000 754.00000 208.00000 142 79 110
112.00000 754.00000 212.00000 125 59 90
112.00000 758.00000 212.00000 137 56 91
104.00000 762.00000 212.00000 145 76 106
100.00000 762.00000 216.00000 233 162 190
100.00000 762.00000 220.00000 177 98 126
100.00000 766.00000 220.00000 115 53 75
104.00000 762.00000 216.00000 186 106 136
104.00000 762.00000 220.00000 182 78 114
104.00000 766.00000 216.00000 255 168 198
104.00000 766.00000 220.00000 110 30 53
100.00000 770.00000 220.00000 96 28 50
104.00000 770.00000 220.00000 75 0 12
104.00000 774.00000 220.00000 130 45 62
108.00000 762.00000 212.00000 145 52 87
112.00000 762.00000 212.00000 142 34 73
112.00000 766.00000 212.00000 158 48 69
108.00000 762.00000 216.00000 150 46 82
108.00000 766.00000 216.00000 151 53 75
108.00000 766.00000 220.00000 140 52 70
112.00000 762.00000 216.00000 150 46 76
112.00000 766.00000 216.00000 161 58 72
112.00000 766.00000 220.00000 155 68 76
108.00000 770.00000 220.00000 114 26 44
108.00000 774.00000 220.00000 126 43 54
112.00000 770.00000 216.00000 169 82 78
112.00000 770.00000 220.00000 164 92 85
112.00000 774.00000 220.00000 158 82 76
100.00000 770.00000 224.00000 99 48 62
100.00000 774.00000 224.00000 142 72 88
104.00000 770.00000 224.00000 122 46 66
104.00000 774.00000 224.00000 191 107 124
108.00000 774.00000 224.00000 146 62 77
116.00000 714.00000 192.00000 117 146 175
116.00000 718.00000 192.00000 108 137 163
116.00000 718.00000 196.00000 104 134 157
120.00000 714.00000 192.00000 111 137 163
120.00000 718.00000 192.00000 105 133 157
120.00000 718.00000 196.00000 97 129 150
116.00000 722.00000 196.00000 122 146 166
116.00000 726.00000 196.00000 176 180 203
120.00000 722.00000 196.00000 86 123 138
120.00000 726.00000 196.00000 141 159 179
124.00000 714.00000 192.00000 112 132 155
124.00000 718.00000 192.00000 112 135 158
124.00000 718.00000 196.00000 120 144 162
128.00000 714.00000 192.00000 127 139 162
128.00000 714.00000 196.00000 131 139 163
128.00000 718.00000 192.00000 136 146 167
128.00000 718.00000 196.00000 142 154 175
124.00000 722.00000 196.00000 137 160 176
124.00000 726.00000 196.00000 162 177 195
128.00000 722.00000 196.00000 159 178 195
128.00000 726.00000 196.00000 173 168 191
116.00000 730.00000 196.00000 206 201 224
116.00000 734.00000 196.00000 195 195 217
120.00000 730.00000 196.00000 243 229 254
120.00000 734.00000 196.00000 206 194 218
116.00000 734.00000 200.00000 173 173 195
120.00000 734.00000 200.00000 181 157 184
116.00000 738.00000 200.00000 144 168 184
116.00000 742.00000 200.00000 148 146 167
116.00000 742.00000 204.00000 158 138 163
120.00000 738.00000 200.00000 162 121 152
120.00000 742.00000 200.00000 143 135 157
120.00000 742.00000 204.00000 142 119 145
124.00000 730.00000 196.00000 186 159 187
124.00000 734.00000 196.00000 199 150 183
128.00000 730.00000 196.00000 195 150 181
128.00000 734.00000 196.00000 224 169 202
124.00000 734.00000 200.00000 212 142 180
128.00000 734.00000 200.00000 255 206 243
124.00000 738.00000 200.00000 158 72 113
124.00000 742.00000 200.00000 142 97 128
124.00000 742.00000 204.00000 126 85 115
128.00000 738.00000 200.00000 197 117 156
128.00000 742.00000 200.00000 154 73 110
132.00000 714.00000 192.00000 137 127 153
132.00000 714.00000 196.00000 138 132 155
132.00000 718.00000 192.00000 138 138 162
132.00000 718.00000 196.00000 142 144 165
136.00000 714.00000 196.00000 135 127 150
136.00000 718.00000 196.00000 134 132 154
132.00000 722.00000 196.00000 141 135 157
132.00000 726.00000 196.00000 149 135 159
136.00000 722.00000 196.00000 128 126 147
136.00000 726.00000 196.00000 140 126 150
140.00000 714.00000 196.00000 136 126 150
140.00000 718.00000 196.00000 134 126 148
144.00000 714.00000 196.00000 139 127 151
144.00000 718.00000 196.00000 134 126 148
140.00000 722.00000 196.00000 133 123 146
140.00000 726.00000 196.00000 142 118 142
144.00000 722.00000 196.00000 134 126 146
144.00000 726.00000 196.00000 122 141 155
132.00000 730.00000 196.00000 136 89 118
132.00000 734.00000 196.00000 92 29 62
136.00000 730.00000 196.00000 164 103 133
136.00000 734.00000 196.00000 113 44 76
136.00000 734.00000 200.00000 79 0 32
132.00000 738.00000 200.00000 214 128 164
132.00000 742.00000 200.00000 169 83 117
136.00000 738.00000 200.00000 151 65 99
136.00000 742.00000 200.00000 157 70 102
136.00000 742.00000 204.00000 156 69 101
140.00000 730.00000 196.00000 128 129 145
140.00000 734.00000 196.00000 127 105 124
144.00000 730.00000 196.00000 91 178 174
144.00000 734.00000 196.00000 111 130 140
140.00000 734.00000 200.00000 107 46 74
144.00000 730.00000 200.00000 107 137 144
144.00000 734.00000 200.00000 117 105 122
140.00000 738.00000 200.00000 125 34 67
140.00000 742.00000 200.00000 151 58 89
144.00000 738.00000 200.00000 135 69 96
144.00000 742.00000 200.00000 163 69 98
116.00000 746.00000 204.00000 140 118 141
116.00000 750.00000 204.00000 141 89 119
120.00000 746.00000 204.00000 126 163 175
120.00000 750.00000 204.00000 125 112 133
124.00000 746.00000 204.00000 109 89 110
124.00000 750.00000 204.00000 110 84 106
128.00000 746.00000 200.00000 126 49 83
128.00000 746.00000 204.00000 92 21 53
128.00000 750.00000 204.00000 104 57 82
128.00000 754.00000 204.00000 110 69 90
132.00000 746.00000 200.00000 133 53 83
132.00000 746.00000 204.00000 128 49 79
132.00000 750.00000 204.00000 112 46 73
136.00000 746.00000 204.00000 135 49 76
136.00000 750.00000 204.00000 119 39 67
132.00000 754.00000 204.00000 111 47 71
136.00000 754.00000 204.00000 109 24 50
140.00000 746.00000 200.00000 163 70 99
140.00000 746.00000 204.00000 150 60 88
140.00000 750.00000 204.00000 151 61 88
144.00000 746.00000 200.00000 179 82 112
144.00000 746.00000 204.00000 210 109 139
144.00000 750.00000 204.00000 178 75 103
140.00000 754.00000 204.00000 144 48 74
144.00000 754.00000 204.00000 170 56 82
116.00000 746.00000 208.00000 151 103 132
116.00000 750.00000 208.00000 166 57 100
120.00000 750.00000 208.00000 250 46 109
116.00000 754.00000 208.00000 94 21 54
116.00000 754.00000 212.00000 115 40 71
116.00000 758.00000 212.00000 123 38 69
120.00000 754.00000 208.00000 154 40 80
