ply
format ascii 1.0
element vertex 1366
property float x
property float y
property float z
property uchar red
property uchar green
property uchar blue
element face 0
property list uint8 int32 vertex_index
end_header
215.00000 269.00000 122.00000 0 3 0
213.00000 269.00000 124.00000 0 3 0
213.00000 269.00000 126.00000 0 2 0
215.00000 269.00000 124.00000 0 2 0
215.00000 269.00000 126.00000 0 2 0
213.00000 271.00000 126.00000 0 2 0
215.00000 271.00000 126.00000 0 2 0
217.00000 267.00000 116.00000 0 3 0
217.00000 267.00000 118.00000 0 3 0
219.00000 267.00000 116.00000 0 3 0
219.00000 267.00000 118.00000 0 3 0
221.00000 267.00000 116.00000 0 3 0
221.00000 267.00000 118.00000 0 3 0
223.00000 267.00000 116.00000 0 2 0
223.00000 267.00000 118.00000 0 2 0
217.00000 267.00000 120.00000 0 3 0
217.00000 267.00000 122.00000 0 3 0
217.00000 269.00000 122.00000 0 2 0
219.00000 267.00000 120.00000 0 3 0
219.00000 267.00000 122.00000 0 2 0
219.00000 269.00000 122.00000 0 2 0
217.00000 269.00000 124.00000 0 2 0
217.00000 269.00000 126.00000 0 2 0
219.00000 267.00000 124.00000 0 2 0
219.00000 269.00000 124.00000 0 2 0
219.00000 269.00000 126.00000 0 2 0
217.00000 271.00000 126.00000 0 2 0
219.00000 271.00000 126.00000 0 2 0
221.00000 267.00000 120.00000 0 2 0
221.00000 267.00000 122.00000 0 2 0
221.00000 269.00000 122.00000 0 2 0
223.00000 267.00000 120.00000 0 2 0
223.00000 267.00000 122.00000 0 2 0
223.00000 269.00000 122.00000 0 2 0
221.00000 267.00000 124.00000 0 2 0
221.00000 269.00000 124.00000 0 2 0
221.00000 269.00000 126.00000 0 2 0
223.00000 269.00000 124.00000 0 2 0
223.00000 269.00000 126.00000 0 2 0
221.00000 271.00000 126.00000 0 2 0
223.00000 271.00000 126.00000 0 2 0
225.00000 257.00000 96.00000 0 3 0
225.00000 257.00000 98.00000 0 3 0
227.00000 257.00000 96.00000 0 3 0
227.00000 257.00000 98.00000 0 3 0
229.00000 257.00000 96.00000 0 3 0
229.00000 257.00000 98.00000 0 3 0
231.00000 257.00000 96.00000 0 3 0
225.00000 259.00000 98.00000 0 3 0
227.00000 259.00000 98.00000 0 3 0
225.00000 259.00000 100.00000 0 3 0
225.00000 259.00000 102.00000 0 3 0
225.00000 261.00000 102.00000 0 3 0
227.00000 259.00000 100.00000 0 3 0
227.00000 259.00000 102.00000 0 3 0
227.00000 261.00000 102.00000 0 3 0
229.00000 259.00000 96.00000 0 3 0
229.00000 259.00000 98.00000 0 3 0
231.00000 259.00000 96.00000 0 3 0
231.00000 259.00000 98.00000 0 3 0
229.00000 259.00000 100.00000 0 3 0
229.00000 259.00000 102.00000 0 3 0
229.00000 261.00000 102.00000 0 3 0
231.00000 259.00000 100.00000 0 3 0
231.00000 259.00000 102.00000 0 3 0
231.00000 261.00000 102.00000 0 3 0
225.00000 261.00000 104.00000 0 3 0
225.00000 261.00000 106.00000 0 3 0
227.00000 261.00000 104.00000 0 3 0
227.00000 261.00000 106.00000 0 3 0
225.00000 261.00000 108.00000 0 3 0
227.00000 261.00000 108.00000 0 3 0
227.00000 261.00000 110.00000 0 3 0
225.00000 263.00000 108.00000 0 3 0
225.00000 263.00000 110.00000 0 3 0
227.00000 263.00000 108.00000 0 3 0
227.00000 263.00000 110.00000 0 3 0
229.00000 259.00000 104.00000 0 3 0
229.00000 261.00000 104.00000 0 3 0
229.00000 261.00000 106.00000 0 3 0
231.00000 259.00000 104.00000 0 3 0
231.00000 261.00000 104.00000 0 3 0
231.00000 261.00000 106.00000 0 3 0
229.00000 261.00000 108.00000 0 3 0
229.00000 261.00000 110.00000 0 3 0
231.00000 261.00000 108.00000 0 3 0
229.00000 263.00000 108.00000 0 3 0
229.00000 263.00000 110.00000 0 3 0
231.00000 263.00000 108.00000 0 3 0
231.00000 263.00000 110.00000 0 3 0
233.00000 257.00000 96.00000 0 3 0
235.00000 257.00000 96.00000 0 3 0
237.00000 257.00000 96.00000 0 3 0
239.00000 257.00000 96.00000 0 3 0
233.00000 259.00000 96.00000 0 3 0
233.00000 259.00000 98.00000 0 3 0
235.00000 259.00000 96.00000 0 3 0
235.00000 259.00000 98.00000 0 3 0
233.00000 259.00000 100.00000 0 3 0
233.00000 259.00000 102.00000 0 3 0
233.00000 261.00000 102.00000 0 3 0
235.00000 259.00000 100.00000 0 3 0
235.00000 259.00000 102.00000 0 3 0
235.00000 261.00000 102.00000 0 3 0
237.00000 259.00000 96.00000 0 3 0
237.00000 259.00000 98.00000 0 3 0
239.00000 259.00000 96.00000 0 3 0
239.00000 259.00000 98.00000 0 3 0
237.00000 259.00000 100.00000 0 3 0
237.00000 259.00000 102.00000 0 3 0
237.00000 261.00000 102.00000 0 3 0
239.00000 259.00000 100.00000 0 3 0
239.00000 259.00000 102.00000 0 3 0
239.00000 261.00000 102.00000 0 3 0
233.00000 259.00000 104.00000 0 3 0
233.00000 261.00000 104.00000 0 3 0
233.00000 261.00000 106.00000 0 3 0
235.00000 261.00000 104.00000 0 3 0
235.00000 261.00000 106.00000 0 3 0
233.00000 261.00000 108.00000 0 3 0
235.00000 261.00000 108.00000 0 2 0
233.00000 263.00000 108.00000 0 2 0
233.00000 263.00000 110.00000 0 2 0
235.00000 263.00000 108.00000 0 2 0
235.00000 263.00000 110.00000 0 2 0
237.00000 261.00000 104.00000 0 3 0
237.00000 261.00000 106.00000 0 2 0
239.00000 261.00000 104.00000 0 3 0
239.00000 261.00000 106.00000 0 2 0
237.00000 261.00000 108.00000 0 2 0
239.00000 261.00000 108.00000 0 2 0
239.00000 263.00000 106.00000 0 2 0
237.00000 263.00000 108.00000 0 2 0
237.00000 263.00000 110.00000 0 2 0
239.00000 263.00000 108.00000 0 2 0
239.00000 263.00000 110.00000 0 2 0
225.00000 263.00000 112.00000 0 3 0
225.00000 265.00000 112.00000 0 3 0
225.00000 265.00000 114.00000 0 2 0
227.00000 263.00000 112.00000 0 3 0
227.00000 265.00000 112.00000 0 3 0
227.00000 265.00000 114.00000 0 2 0
225.00000 265.00000 116.00000 0 2 0
225.00000 265.00000 118.00000 0 2 0
227.00000 265.00000 116.00000 0 2 0
227.00000 265.00000 118.00000 0 2 0
229.00000 263.00000 112.00000 0 2 0
229.00000 265.00000 112.00000 0 2 0
229.00000 265.00000 114.00000 0 2 0
231.00000 263.00000 112.00000 0 2 0
231.00000 263.00000 114.00000 0 2 0
231.00000 265.00000 112.00000 0 2 0
231.00000 265.00000 114.00000 0 2 0
229.00000 265.00000 116.00000 0 2 0
229.00000 265.00000 118.00000 0 2 0
231.00000 265.00000 116.00000 0 2 0
231.00000 265.00000 118.00000 0 2 0
233.00000 263.00000 112.00000 0 2 0
233.00000 263.00000 114.00000 0 2 0
233.00000 265.00000 112.00000 0 2 0
233.00000 265.00000 114.00000 0 2 0
235.00000 263.00000 112.00000 0 2 0
235.00000 263.00000 114.00000 0 2 0
235.00000 265.00000 112.00000 0 2 0
235.00000 265.00000 114.00000 0 2 0
233.00000 265.00000 116.00000 0 2 0
233.00000 265.00000 118.00000 0 2 0
235.00000 265.00000 116.00000 0 2 0
235.00000 265.00000 118.00000 0 2 0
237.00000 263.00000 112.00000 0 2 0
237.00000 263.00000 114.00000 0 2 0
237.00000 265.00000 114.00000 0 2 0
239.00000 263.00000 112.00000 0 2 0
239.00000 263.00000 114.00000 0 2 0
239.00000 265.00000 112.00000 0 2 0
239.00000 265.00000 114.00000 0 2 0
237.00000 265.00000 116.00000 0 2 0
239.00000 265.00000 116.00000 0 2 0
225.00000 267.00000 116.00000 0 2 0
225.00000 267.00000 118.00000 0 2 0
227.00000 267.00000 116.00000 0 2 0
227.00000 267.00000 118.00000 0 2 0
229.00000 267.00000 118.00000 0 2 0
231.00000 267.00000 118.00000 0 2 0
225.00000 267.00000 120.00000 0 2 0
225.00000 267.00000 122.00000 0 2 0
225.00000 269.00000 122.00000 0 2 0
227.00000 267.00000 120.00000 0 2 0
227.00000 267.00000 122.00000 0 2 0
227.00000 269.00000 122.00000 0 2 0
225.00000 269.00000 124.00000 0 2 0
225.00000 269.00000 126.00000 0 2 0
227.00000 269.00000 124.00000 0 2 0
227.00000 269.00000 126.00000 0 2 0
225.00000 271.00000 126.00000 0 2 0
227.00000 271.00000 126.00000 0 2 0
229.00000 267.00000 120.00000 0 2 0
229.00000 267.00000 122.00000 0 2 0
229.00000 269.00000 122.00000 0 2 0
231.00000 267.00000 120.00000 0 2 0
231.00000 267.00000 122.00000 0 2 0
231.00000 269.00000 122.00000 0 2 0
229.00000 269.00000 124.00000 0 2 0
229.00000 269.00000 126.00000 0 2 0
231.00000 269.00000 124.00000 0 2 0
231.00000 269.00000 126.00000 0 2 0
233.00000 267.00000 116.00000 0 2 0
233.00000 267.00000 118.00000 0 2 0
235.00000 267.00000 116.00000 0 2 0
235.00000 267.00000 118.00000 0 2 0
237.00000 267.00000 116.00000 0 2 0
237.00000 267.00000 118.00000 0 2 0
239.00000 267.00000 116.00000 0 2 0
239.00000 267.00000 118.00000 0 2 0
233.00000 267.00000 120.00000 0 2 0
233.00000 267.00000 122.00000 0 2 0
233.00000 269.00000 122.00000 0 2 0
235.00000 267.00000 120.00000 0 2 0
235.00000 267.00000 122.00000 0 2 0
235.00000 269.00000 122.00000 0 2 0
233.00000 269.00000 124.00000 0 2 0
233.00000 269.00000 126.00000 0 2 0
235.00000 269.00000 124.00000 0 2 0
235.00000 269.00000 126.00000 0 2 0
237.00000 267.00000 120.00000 0 2 0
237.00000 267.00000 122.00000 0 2 0
237.00000 269.00000 122.00000 0 2 0
239.00000 267.00000 120.00000 0 2 0
239.00000 267.00000 122.00000 0 2 0
239.00000 269.00000 122.00000 0 2 0
237.00000 269.00000 124.00000 0 2 0
237.00000 269.00000 126.00000 0 2 0
239.00000 269.00000 124.00000 0 2 0
239.00000 269.00000 126.00000 0 2 0
241.00000 251.00000 0.00000 0 0 0
241.00000 251.00000 2.00000 0 0 0
243.00000 251.00000 0.00000 0 0 0
243.00000 251.00000 2.00000 0 0 0
243.00000 253.00000 2.00000 0 0 0
241.00000 251.00000 4.00000 0 0 0
241.00000 251.00000 6.00000 0 0 0
243.00000 251.00000 4.00000 0 0 0
243.00000 251.00000 6.00000 0 0 0
245.00000 251.00000 0.00000 0 0 0
245.00000 251.00000 2.00000 0 0 0
245.00000 253.00000 2.00000 0 0 0
247.00000 251.00000 0.00000 0 0 0
247.00000 251.00000 2.00000 0 0 0
247.00000 253.00000 2.00000 0 0 0
245.00000 251.00000 4.00000 0 0 0
245.00000 251.00000 6.00000 0 0 0
247.00000 251.00000 4.00000 0 0 0
247.00000 251.00000 6.00000 0 0 0
247.00000 253.00000 4.00000 0 0 0
247.00000 253.00000 6.00000 0 0 0
241.00000 251.00000 8.00000 0 0 0
241.00000 251.00000 10.00000 0 0 0
243.00000 251.00000 8.00000 0 0 0
243.00000 251.00000 10.00000 0 0 0
241.00000 251.00000 12.00000 0 0 0
241.00000 251.00000 14.00000 0 0 0
243.00000 251.00000 12.00000 0 0 0
243.00000 251.00000 14.00000 0 0 0
245.00000 251.00000 8.00000 0 0 0
245.00000 251.00000 10.00000 0 0 0
247.00000 251.00000 8.00000 0 0 0
247.00000 251.00000 10.00000 0 0 0
245.00000 251.00000 12.00000 0 0 0
245.00000 251.00000 14.00000 0 0 0
247.00000 251.00000 12.00000 0 0 0
247.00000 251.00000 14.00000 0 0 0
249.00000 251.00000 0.00000 0 0 0
249.00000 251.00000 2.00000 0 0 0
251.00000 251.00000 0.00000 0 0 0
251.00000 251.00000 2.00000 0 0 0
251.00000 253.00000 0.00000 0 0 0
251.00000 253.00000 2.00000 0 0 0
249.00000 251.00000 4.00000 0 0 0
249.00000 251.00000 6.00000 0 0 0
251.00000 251.00000 4.00000 0 0 0
251.00000 251.00000 6.00000 0 0 0
253.00000 251.00000 0.00000 0 0 0
253.00000 251.00000 2.00000 0 1 1
253.00000 253.00000 0.00000 0 0 0
253.00000 253.00000 2.00000 0 0 0
255.00000 251.00000 0.00000 0 1 1
255.00000 251.00000 2.00000 0 1 1
253.00000 251.00000 4.00000 0 1 1
253.00000 251.00000 6.00000 0 1 1
255.00000 251.00000 4.00000 0 1 1
255.00000 251.00000 6.00000 0 1 1
249.00000 251.00000 8.00000 0 0 0
249.00000 251.00000 10.00000 0 0 0
251.00000 251.00000 8.00000 0 0 0
251.00000 251.00000 10.00000 0 0 0
249.00000 251.00000 12.00000 0 0 0
249.00000 251.00000 14.00000 0 0 0
251.00000 251.00000 12.00000 0 0 0
251.00000 251.00000 14.00000 0 0 0
253.00000 251.00000 8.00000 0 1 1
253.00000 251.00000 10.00000 0 1 1
255.00000 251.00000 8.00000 0 1 1
255.00000 251.00000 10.00000 0 1 1
255.00000 253.00000 10.00000 0 1 1
253.00000 251.00000 12.00000 0 1 1
253.00000 251.00000 14.00000 0 0 0
253.00000 253.00000 12.00000 0 1 1
253.00000 253.00000 14.00000 0 1 1
255.00000 251.00000 12.00000 0 1 1
255.00000 253.00000 12.00000 0 1 1
255.00000 253.00000 14.00000 0 1 1
241.00000 251.00000 16.00000 0 0 0
241.00000 251.00000 18.00000 0 0 0
243.00000 251.00000 16.00000 0 0 0
243.00000 251.00000 18.00000 0 0 0
241.00000 251.00000 20.00000 0 0 0
241.00000 251.00000 22.00000 0 0 0
241.00000 253.00000 22.00000 0 0 0
243.00000 251.00000 20.00000 0 0 0
243.00000 251.00000 22.00000 0 0 0
243.00000 253.00000 20.00000 0 0 0
243.00000 253.00000 22.00000 0 0 0
245.00000 251.00000 16.00000 0 0 0
245.00000 251.00000 18.00000 0 0 0
247.00000 251.00000 16.00000 0 0 0
247.00000 251.00000 18.00000 0 0 0
245.00000 251.00000 20.00000 0 0 0
245.00000 251.00000 22.00000 0 0 0
245.00000 253.00000 20.00000 0 0 0
245.00000 253.00000 22.00000 0 0 0
247.00000 251.00000 20.00000 0 0 0
247.00000 251.00000 22.00000 0 0 0
247.00000 253.00000 22.00000 0 0 0
241.00000 251.00000 24.00000 0 0 0
241.00000 251.00000 26.00000 0 0 0
241.00000 253.00000 24.00000 0 0 0
241.00000 253.00000 26.00000 0 0 0
243.00000 251.00000 24.00000 0 0 0
243.00000 251.00000 26.00000 0 0 0
243.00000 253.00000 24.00000 0 0 0
243.00000 253.00000 26.00000 0 0 0
241.00000 251.00000 28.00000 0 0 0
241.00000 251.00000 30.00000 0 0 0
241.00000 253.00000 28.00000 0 0 0
241.00000 253.00000 30.00000 0 0 0
243.00000 251.00000 28.00000 0 0 0
243.00000 251.00000 30.00000 0 0 0
243.00000 253.00000 28.00000 0 0 0
243.00000 253.00000 30.00000 0 0 0
245.00000 251.00000 24.00000 0 0 0
245.00000 251.00000 26.00000 0 0 0
245.00000 253.00000 24.00000 0 0 0
245.00000 253.00000 26.00000 0 0 0
247.00000 251.00000 24.00000 0 0 0
247.00000 251.00000 26.00000 0 0 0
247.00000 253.00000 24.00000 0 0 0
247.00000 253.00000 26.00000 0 0 0
245.00000 251.00000 28.00000 0 0 0
245.00000 251.00000 30.00000 0 0 0
245.00000 253.00000 28.00000 0 0 0
245.00000 253.00000 30.00000 0 0 0
247.00000 251.00000 28.00000 0 0 0
247.00000 251.00000 30.00000 0 0 0
247.00000 253.00000 28.00000 0 0 0
249.00000 251.00000 16.00000 0 0 0
249.00000 251.00000 18.00000 0 0 0
251.00000 251.00000 16.00000 0 0 0
251.00000 251.00000 18.00000 0 0 0
249.00000 251.00000 20.00000 0 0 0
249.00000 251.00000 22.00000 0 0 0
249.00000 253.00000 22.00000 0 0 0
251.00000 251.00000 20.00000 0 0 0
251.00000 251.00000 22.00000 0 0 0
251.00000 253.00000 20.00000 0 0 0
251.00000 253.00000 22.00000 0 0 0
253.00000 251.00000 16.00000 0 0 0
253.00000 251.00000 18.00000 0 0 0
253.00000 253.00000 16.00000 0 0 0
253.00000 253.00000 18.00000 0 0 0
255.00000 253.00000 16.00000 0 1 1
255.00000 253.00000 18.00000 0 1 1
253.00000 251.00000 20.00000 0 0 0
253.00000 253.00000 20.00000 0 1 1
253.00000 253.00000 22.00000 0 1 1
255.00000 253.00000 20.00000 0 1 1
255.00000 253.00000 22.00000 0 1 1
249.00000 251.00000 24.00000 0 0 0
249.00000 253.00000 24.00000 0 0 0
249.00000 253.00000 26.00000 0 0 0
251.00000 253.00000 24.00000 0 0 0
251.00000 253.00000 26.00000 0 0 0
249.00000 251.00000 28.00000 0 0 0
249.00000 251.00000 30.00000 0 0 0
249.00000 253.00000 28.00000 0 0 0
249.00000 253.00000 30.00000 0 0 0
251.00000 251.00000 28.00000 0 0 0
251.00000 251.00000 30.00000 0 0 0
251.00000 253.00000 28.00000 0 0 0
251.00000 253.00000 30.00000 0 0 0
253.00000 253.00000 24.00000 0 1 1
253.00000 253.00000 26.00000 0 0 0
255.00000 253.00000 24.00000 0 1 1
255.00000 253.00000 26.00000 0 1 1
253.00000 251.00000 30.00000 0 0 0
253.00000 253.00000 28.00000 0 0 0
253.00000 253.00000 30.00000 0 0 0
255.00000 253.00000 28.00000 0 1 1
255.00000 253.00000 30.00000 0 1 1
257.00000 251.00000 0.00000 0 1 1
257.00000 251.00000 2.00000 0 1 1
259.00000 251.00000 0.00000 0 1 1
259.00000 251.00000 2.00000 0 1 1
257.00000 251.00000 4.00000 0 1 1
257.00000 251.00000 6.00000 0 1 1
259.00000 251.00000 4.00000 0 1 1
259.00000 251.00000 6.00000 0 1 1
259.00000 253.00000 6.00000 0 1 1
261.00000 251.00000 0.00000 0 1 1
261.00000 251.00000 2.00000 0 1 1
263.00000 251.00000 0.00000 0 1 1
263.00000 251.00000 2.00000 0 1 1
261.00000 251.00000 4.00000 0 1 1
261.00000 251.00000 6.00000 0 1 1
261.00000 253.00000 6.00000 0 1 1
263.00000 251.00000 4.00000 0 1 1
263.00000 251.00000 6.00000 0 1 1
263.00000 253.00000 6.00000 0 1 1
257.00000 251.00000 8.00000 0 1 1
257.00000 251.00000 10.00000 0 1 1
257.00000 253.00000 8.00000 0 1 1
257.00000 253.00000 10.00000 0 1 1
259.00000 251.00000 8.00000 0 1 1
259.00000 251.00000 10.00000 0 1 1
259.00000 253.00000 8.00000 0 1 1
259.00000 253.00000 10.00000 0 1 1
257.00000 253.00000 12.00000 0 1 1
257.00000 253.00000 14.00000 0 1 1
259.00000 253.00000 12.00000 0 1 1
259.00000 253.00000 14.00000 0 1 1
261.00000 253.00000 8.00000 0 1 1
261.00000 253.00000 10.00000 0 1 1
263.00000 253.00000 8.00000 0 1 1
263.00000 253.00000 10.00000 0 1 1
261.00000 253.00000 12.00000 0 1 1
261.00000 253.00000 14.00000 0 1 1
263.00000 253.00000 12.00000 0 1 1
263.00000 253.00000 14.00000 0 1 1
265.00000 251.00000 0.00000 0 1 1
265.00000 251.00000 2.00000 0 1 1
267.00000 251.00000 0.00000 0 1 1
267.00000 251.00000 2.00000 0 1 1
267.00000 253.00000 0.00000 0 1 1
267.00000 253.00000 2.00000 0 1 1
265.00000 251.00000 4.00000 0 1 1
265.00000 251.00000 6.00000 0 1 1
265.00000 253.00000 4.00000 0 1 1
265.00000 253.00000 6.00000 0 1 1
267.00000 251.00000 4.00000 0 1 1
267.00000 253.00000 4.00000 0 1 1
267.00000 253.00000 6.00000 0 1 1
269.00000 251.00000 0.00000 0 1 1
269.00000 251.00000 2.00000 0 1 1
269.00000 253.00000 0.00000 0 1 1
269.00000 253.00000 2.00000 0 1 1
271.00000 253.00000 0.00000 0 1 1
271.00000 253.00000 2.00000 0 1 1
269.00000 253.00000 4.00000 0 1 1
269.00000 253.00000 6.00000 0 1 1
271.00000 253.00000 4.00000 0 1 1
271.00000 253.00000 6.00000 0 1 1
269.00000 255.00000 6.00000 0 1 1
271.00000 255.00000 4.00000 0 1 1
271.00000 255.00000 6.00000 0 1 1
265.00000 253.00000 8.00000 0 1 1
265.00000 253.00000 10.00000 0 1 1
267.00000 253.00000 8.00000 0 1 1
267.00000 253.00000 10.00000 0 1 1
265.00000 253.00000 12.00000 0 1 1
265.00000 253.00000 14.00000 0 1 1
267.00000 253.00000 12.00000 0 1 1
267.00000 253.00000 14.00000 0 1 1
267.00000 255.00000 10.00000 0 1 1
267.00000 255.00000 12.00000 0 1 1
267.00000 255.00000 14.00000 0 1 1
269.00000 253.00000 8.00000 0 1 1
269.00000 253.00000 10.00000 0 1 1
269.00000 255.00000 8.00000 0 1 1
269.00000 255.00000 10.00000 0 1 1
271.00000 255.00000 8.00000 0 1 1
271.00000 255.00000 10.00000 0 1 1
269.00000 255.00000 12.00000 0 1 1
269.00000 255.00000 14.00000 0 1 1
271.00000 255.00000 12.00000 0 1 1
271.00000 255.00000 14.00000 0 1 1
257.00000 253.00000 16.00000 0 1 1
257.00000 253.00000 18.00000 0 1 1
259.00000 253.00000 16.00000 0 1 1
259.00000 253.00000 18.00000 0 1 1
257.00000 253.00000 20.00000 0 1 1
257.00000 253.00000 22.00000 0 1 1
259.00000 253.00000 20.00000 0 1 1
259.00000 253.00000 22.00000 0 1 1
259.00000 255.00000 22.00000 0 1 1
261.00000 253.00000 16.00000 0 1 1
261.00000 253.00000 18.00000 0 1 1
263.00000 253.00000 16.00000 0 1 1
263.00000 253.00000 18.00000 0 1 1
261.00000 253.00000 20.00000 0 1 1
261.00000 253.00000 22.00000 0 1 1
263.00000 253.00000 20.00000 0 1 1
263.00000 255.00000 18.00000 0 1 1
261.00000 255.00000 20.00000 0 1 1
261.00000 255.00000 22.00000 0 1 1
263.00000 255.00000 20.00000 0 1 1
263.00000 255.00000 22.00000 0 1 1
257.00000 253.00000 24.00000 0 1 1
257.00000 253.00000 26.00000 0 1 1
259.00000 253.00000 24.00000 0 1 1
259.00000 253.00000 26.00000 0 1 1
257.00000 253.00000 28.00000 0 1 1
257.00000 253.00000 30.00000 0 1 1
259.00000 253.00000 28.00000 0 1 1
259.00000 253.00000 30.00000 0 1 1
259.00000 255.00000 24.00000 0 1 1
259.00000 255.00000 26.00000 0 1 1
261.00000 253.00000 24.00000 0 1 1
261.00000 253.00000 26.00000 0 1 1
263.00000 253.00000 24.00000 0 1 1
263.00000 253.00000 26.00000 0 1 1
261.00000 253.00000 28.00000 0 1 1
261.00000 253.00000 30.00000 0 1 1
263.00000 253.00000 28.00000 0 1 1
263.00000 253.00000 30.00000 0 1 1
261.00000 255.00000 24.00000 0 1 1
261.00000 255.00000 26.00000 0 1 1
263.00000 255.00000 24.00000 0 1 1
263.00000 255.00000 26.00000 0 1 1
265.00000 253.00000 16.00000 0 1 1
265.00000 253.00000 18.00000 0 1 1
267.00000 253.00000 16.00000 0 1 1
265.00000 253.00000 20.00000 0 1 1
265.00000 255.00000 16.00000 0 1 1
265.00000 255.00000 18.00000 0 1 1
267.00000 255.00000 16.00000 0 1 1
267.00000 255.00000 18.00000 0 1 1
265.00000 255.00000 20.00000 0 1 1
265.00000 255.00000 22.00000 0 1 1
267.00000 255.00000 20.00000 0 1 1
267.00000 255.00000 22.00000 0 1 1
269.00000 255.00000 16.00000 0 1 1
269.00000 255.00000 18.00000 0 1 1
271.00000 255.00000 16.00000 0 1 1
271.00000 255.00000 18.00000 0 1 1
269.00000 255.00000 20.00000 0 1 1
269.00000 255.00000 22.00000 0 1 1
271.00000 255.00000 20.00000 0 1 1
271.00000 255.00000 22.00000 0 1 1
265.00000 253.00000 24.00000 0 1 1
265.00000 253.00000 26.00000 0 1 1
267.00000 253.00000 26.00000 0 1 1
265.00000 253.00000 28.00000 0 1 1
265.00000 253.00000 30.00000 0 1 1
267.00000 253.00000 28.00000 0 1 1
267.00000 253.00000 30.00000 0 1 1
265.00000 255.00000 24.00000 0 1 1
265.00000 255.00000 26.00000 0 1 1
267.00000 255.00000 24.00000 0 1 1
267.00000 255.00000 26.00000 0 1 1
265.00000 255.00000 28.00000 0 1 1
267.00000 255.00000 28.00000 0 1 1
267.00000 255.00000 30.00000 0 1 1
269.00000 253.00000 28.00000 0 1 1
269.00000 253.00000 30.00000 0 1 1
271.00000 253.00000 30.00000 0 1 1
269.00000 255.00000 24.00000 0 1 1
269.00000 255.00000 26.00000 0 1 1
269.00000 257.00000 24.00000 0 1 1
269.00000 257.00000 26.00000 0 1 1
271.00000 255.00000 24.00000 0 1 1
271.00000 255.00000 26.00000 0 1 1
271.00000 257.00000 24.00000 0 1 1
271.00000 257.00000 26.00000 0 1 1
269.00000 255.00000 28.00000 0 1 1
269.00000 255.00000 30.00000 0 1 1
271.00000 255.00000 28.00000 0 1 1
271.00000 255.00000 30.00000 0 1 1
241.00000 251.00000 32.00000 0 0 0
241.00000 251.00000 34.00000 0 0 0
243.00000 251.00000 32.00000 0 0 0
243.00000 251.00000 34.00000 0 0 0
243.00000 251.00000 36.00000 0 0 0
245.00000 251.00000 32.00000 0 0 0
245.00000 251.00000 34.00000 0 0 0
247.00000 251.00000 32.00000 0 0 0
247.00000 251.00000 34.00000 0 0 0
245.00000 251.00000 36.00000 0 0 2
247.00000 251.00000 36.00000 0 0 0
247.00000 251.00000 38.00000 0 0 0
249.00000 251.00000 32.00000 0 0 0
249.00000 251.00000 34.00000 0 0 0
251.00000 251.00000 32.00000 0 0 0
251.00000 251.00000 34.00000 0 0 0
249.00000 251.00000 36.00000 0 0 0
249.00000 251.00000 38.00000 0 0 0
251.00000 251.00000 36.00000 0 0 0
251.00000 251.00000 38.00000 0 0 0
253.00000 251.00000 32.00000 0 0 0
253.00000 251.00000 34.00000 0 0 0
253.00000 253.00000 32.00000 0 0 0
255.00000 251.00000 32.00000 0 1 1
255.00000 251.00000 34.00000 0 1 1
255.00000 253.00000 32.00000 0 1 1
255.00000 253.00000 34.00000 0 1 1
253.00000 251.00000 36.00000 0 0 0
253.00000 251.00000 38.00000 0 0 0
255.00000 251.00000 36.00000 0 0 0
255.00000 251.00000 38.00000 0 0 0
251.00000 251.00000 40.00000 0 0 0
253.00000 251.00000 40.00000 0 0 0
255.00000 251.00000 40.00000 0 1 1
257.00000 251.00000 32.00000 0 1 1
257.00000 251.00000 34.00000 0 1 1
257.00000 253.00000 32.00000 0 1 1
257.00000 253.00000 34.00000 0 1 1
259.00000 251.00000 32.00000 0 1 1
259.00000 251.00000 34.00000 0 1 1
259.00000 253.00000 32.00000 0 1 1
259.00000 253.00000 34.00000 0 1 1
257.00000 251.00000 36.00000 0 1 1
257.00000 251.00000 38.00000 0 1 1
259.00000 251.00000 36.00000 0 1 1
259.00000 251.00000 38.00000 0 1 1
261.00000 251.00000 34.00000 0 1 1
261.00000 253.00000 32.00000 0 1 1
261.00000 253.00000 34.00000 0 1 1
263.00000 251.00000 34.00000 0 1 1
263.00000 253.00000 32.00000 0 1 1
263.00000 253.00000 34.00000 0 1 1
261.00000 251.00000 36.00000 0 1 1
261.00000 251.00000 38.00000 0 1 1
261.00000 253.00000 36.00000 0 1 1
263.00000 251.00000 36.00000 0 1 1
263.00000 251.00000 38.00000 0 1 1
263.00000 253.00000 36.00000 0 1 1
257.00000 251.00000 40.00000 0 1 1
259.00000 251.00000 40.00000 0 1 1
259.00000 251.00000 44.00000 0 1 1
261.00000 251.00000 40.00000 0 1 1
263.00000 251.00000 40.00000 0 1 1
261.00000 251.00000 44.00000 0 1 1
265.00000 251.00000 34.00000 0 1 1
265.00000 253.00000 32.00000 0 1 1
265.00000 253.00000 34.00000 0 1 1
267.00000 251.00000 34.00000 0 1 1
267.00000 253.00000 32.00000 0 1 1
267.00000 253.00000 34.00000 0 1 1
265.00000 251.00000 36.00000 0 1 1
265.00000 251.00000 38.00000 0 1 1
267.00000 251.00000 36.00000 0 1 1
267.00000 251.00000 38.00000 0 1 1
267.00000 253.00000 36.00000 0 1 1
267.00000 253.00000 38.00000 0 1 1
267.00000 255.00000 32.00000 0 1 1
269.00000 251.00000 34.00000 0 1 1
269.00000 253.00000 32.00000 0 1 1
269.00000 253.00000 34.00000 0 1 1
271.00000 253.00000 32.00000 0 1 1
271.00000 253.00000 34.00000 0 1 1
269.00000 251.00000 36.00000 0 1 1
269.00000 251.00000 38.00000 0 1 1
269.00000 253.00000 36.00000 0 1 1
269.00000 253.00000 38.00000 0 1 1
271.00000 253.00000 36.00000 0 1 1
271.00000 253.00000 38.00000 0 1 1
269.00000 255.00000 32.00000 0 1 1
269.00000 255.00000 34.00000 0 1 1
271.00000 255.00000 32.00000 0 1 1
271.00000 255.00000 34.00000 0 1 1
265.00000 251.00000 40.00000 0 1 1
265.00000 251.00000 42.00000 0 1 1
267.00000 251.00000 40.00000 0 1 1
267.00000 251.00000 42.00000 0 1 1
267.00000 251.00000 44.00000 0 1 1
269.00000 251.00000 40.00000 0 1 1
269.00000 251.00000 42.00000 0 1 1
269.00000 253.00000 40.00000 0 1 1
271.00000 251.00000 40.00000 0 1 1
271.00000 251.00000 42.00000 0 1 1
271.00000 253.00000 40.00000 0 1 1
271.00000 253.00000 42.00000 0 1 1
269.00000 251.00000 44.00000 0 1 1
269.00000 251.00000 46.00000 0 1 1
271.00000 251.00000 44.00000 0 1 1
271.00000 251.00000 46.00000 0 1 1
271.00000 251.00000 48.00000 0 1 1
271.00000 251.00000 50.00000 0 1 1
273.00000 253.00000 0.00000 0 1 1
273.00000 253.00000 2.00000 0 1 1
275.00000 253.00000 0.00000 0 1 1
273.00000 253.00000 4.00000 0 1 1
273.00000 255.00000 0.00000 0 1 1
273.00000 255.00000 2.00000 0 1 1
275.00000 255.00000 0.00000 0 1 1
275.00000 255.00000 2.00000 0 1 1
275.00000 257.00000 0.00000 0 1 1
275.00000 257.00000 2.00000 0 1 1
273.00000 255.00000 4.00000 0 1 1
273.00000 255.00000 6.00000 0 1 1
273.00000 257.00000 4.00000 0 1 1
273.00000 257.00000 6.00000 0 1 1
275.00000 255.00000 4.00000 0 1 1
275.00000 257.00000 4.00000 0 1 1
275.00000 257.00000 6.00000 0 1 1
277.00000 255.00000 0.00000 0 1 1
277.00000 255.00000 2.00000 0 1 1
277.00000 257.00000 0.00000 0 1 1
277.00000 257.00000 2.00000 0 2 2
279.00000 257.00000 0.00000 0 2 2
279.00000 257.00000 2.00000 0 2 2
277.00000 257.00000 4.00000 0 2 2
277.00000 257.00000 6.00000 0 2 2
279.00000 257.00000 4.00000 0 2 2
279.00000 257.00000 6.00000 0 2 2
273.00000 255.00000 8.00000 0 1 1
273.00000 255.00000 10.00000 0 1 1
273.00000 257.00000 8.00000 0 1 1
273.00000 257.00000 10.00000 0 1 1
275.00000 257.00000 8.00000 0 1 1
275.00000 257.00000 10.00000 0 1 1
273.00000 255.00000 12.00000 0 1 1
273.00000 255.00000 14.00000 0 1 1
273.00000 257.00000 12.00000 0 1 1
275.00000 255.00000 12.00000 0 1 1
275.00000 255.00000 14.00000 0 1 1
275.00000 257.00000 12.00000 0 1 1
275.00000 257.00000 14.00000 0 1 1
277.00000 257.00000 8.00000 0 1 1
277.00000 257.00000 10.00000 0 1 1
279.00000 257.00000 8.00000 0 2 2
279.00000 257.00000 10.00000 0 1 1
277.00000 257.00000 12.00000 0 1 1
277.00000 257.00000 14.00000 0 1 1
279.00000 257.00000 12.00000 0 1 1
279.00000 257.00000 14.00000 0 1 1
279.00000 259.00000 0.00000 0 2 2
279.00000 259.00000 2.00000 0 2 2
279.00000 259.00000 6.00000 0 2 2
279.00000 259.00000 8.00000 0 2 2
279.00000 259.00000 10.00000 0 1 1
279.00000 259.00000 12.00000 0 1 1
279.00000 259.00000 14.00000 0 1 1
281.00000 257.00000 2.00000 0 2 2
281.00000 257.00000 4.00000 0 2 2
281.00000 257.00000 6.00000 0 2 2
281.00000 257.00000 14.00000 0 1 1
281.00000 259.00000 0.00000 0 2 2
281.00000 259.00000 2.00000 0 2 2
283.00000 259.00000 0.00000 0 2 2
283.00000 259.00000 2.00000 0 2 2
283.00000 261.00000 0.00000 0 2 2
281.00000 259.00000 4.00000 0 2 2
281.00000 259.00000 6.00000 0 2 2
283.00000 259.00000 4.00000 0 2 2
283.00000 259.00000 6.00000 0 2 2
285.00000 259.00000 0.00000 2 2 2
285.00000 259.00000 2.00000 0 2 2
285.00000 261.00000 0.00000 2 2 2
285.00000 261.00000 2.00000 2 2 2
287.00000 261.00000 0.00000 2 2 2
287.00000 261.00000 2.00000 2 2 2
285.00000 259.00000 4.00000 0 2 2
285.00000 259.00000 6.00000 2 2 2
285.00000 261.00000 4.00000 2 2 2
285.00000 261.00000 6.00000 2 2 2
287.00000 261.00000 4.00000 2 2 0
287.00000 261.00000 6.00000 2 2 0
281.00000 259.00000 8.00000 0 2 2
281.00000 259.00000 10.00000 0 1 1
283.00000 259.00000 8.00000 2 2 2
283.00000 259.00000 10.00000 1 1 1
283.00000 261.00000 10.00000 1 1 1
281.00000 259.00000 12.00000 0 1 1
281.00000 259.00000 14.00000 0 1 1
283.00000 259.00000 12.00000 1 1 1
283.00000 259.00000 14.00000 1 1 1
283.00000 261.00000 12.00000 1 1 1
283.00000 261.00000 14.00000 1 1 1
285.00000 259.00000 8.00000 2 2 2
285.00000 259.00000 10.00000 2 2 2
285.00000 261.00000 8.00000 2 2 2
285.00000 261.00000 10.00000 1 1 1
287.00000 261.00000 8.00000 2 2 0
287.00000 261.00000 10.00000 1 1 0
285.00000 259.00000 14.00000 1 1 1
285.00000 261.00000 12.00000 1 1 1
285.00000 261.00000 14.00000 1 1 1
287.00000 259.00000 14.00000 1 1 1
287.00000 261.00000 12.00000 1 1 0
287.00000 261.00000 14.00000 1 1 1
273.00000 255.00000 16.00000 0 1 1
273.00000 255.00000 18.00000 0 1 1
273.00000 257.00000 18.00000 0 1 1
275.00000 255.00000 16.00000 0 1 1
275.00000 255.00000 18.00000 0 1 1
275.00000 257.00000 16.00000 0 1 1
275.00000 257.00000 18.00000 0 1 1
273.00000 255.00000 20.00000 0 1 1
273.00000 255.00000 22.00000 0 1 1
273.00000 257.00000 20.00000 0 1 1
273.00000 257.00000 22.00000 0 1 1
275.00000 257.00000 20.00000 0 1 1
275.00000 257.00000 22.00000 0 1 1
277.00000 257.00000 16.00000 0 1 1
277.00000 257.00000 18.00000 0 1 1
279.00000 257.00000 16.00000 0 1 1
279.00000 257.00000 18.00000 0 1 1
277.00000 257.00000 20.00000 0 1 1
277.00000 257.00000 22.00000 0 1 1
279.00000 257.00000 20.00000 0 1 1
279.00000 257.00000 22.00000 0 1 1
273.00000 255.00000 24.00000 0 1 1
273.00000 255.00000 26.00000 0 1 1
273.00000 257.00000 24.00000 0 1 1
273.00000 257.00000 26.00000 0 1 1
275.00000 255.00000 24.00000 0 1 1
275.00000 255.00000 26.00000 0 1 1
275.00000 257.00000 24.00000 0 1 1
275.00000 257.00000 26.00000 0 1 1
273.00000 255.00000 28.00000 0 1 1
273.00000 255.00000 30.00000 0 1 1
273.00000 257.00000 30.00000 0 1 1
275.00000 255.00000 28.00000 0 1 1
275.00000 255.00000 30.00000 0 1 1
275.00000 257.00000 30.00000 0 1 1
277.00000 255.00000 26.00000 0 1 1
277.00000 257.00000 24.00000 0 1 1
277.00000 257.00000 26.00000 0 1 1
279.00000 257.00000 24.00000 0 1 1
279.00000 257.00000 26.00000 0 1 1
277.00000 255.00000 28.00000 0 1 1
277.00000 255.00000 30.00000 0 1 1
277.00000 257.00000 28.00000 0 1 1
277.00000 257.00000 30.00000 0 1 1
279.00000 257.00000 28.00000 0 1 1
279.00000 257.00000 30.00000 0 1 1
279.00000 259.00000 18.00000 0 1 1
277.00000 259.00000 22.00000 0 1 1
279.00000 259.00000 20.00000 0 1 1
279.00000 259.00000 22.00000 0 1 1
277.00000 259.00000 24.00000 0 1 1
279.00000 259.00000 24.00000 0 1 1
279.00000 259.00000 26.00000 0 1 1
279.00000 259.00000 28.00000 0 1 1
281.00000 257.00000 16.00000 0 1 1
281.00000 257.00000 18.00000 0 1 1
281.00000 257.00000 22.00000 0 1 1
281.00000 257.00000 24.00000 0 1 1
281.00000 257.00000 26.00000 0 1 1
281.00000 257.00000 28.00000 0 1 1
281.00000 257.00000 30.00000 1 1 1
283.00000 257.00000 30.00000 1 1 1
285.00000 257.00000 30.00000 1 1 1
281.00000 259.00000 16.00000 0 1 1
281.00000 259.00000 18.00000 0 1 1
283.00000 259.00000 16.00000 1 1 1
283.00000 259.00000 18.00000 1 1 1
283.00000 261.00000 18.00000 1 1 1
281.00000 259.00000 20.00000 0 1 1
281.00000 259.00000 22.00000 0 1 1
283.00000 259.00000 20.00000 1 1 1
283.00000 259.00000 22.00000 1 1 1
283.00000 261.00000 20.00000 1 1 1
283.00000 261.00000 22.00000 1 1 1
285.00000 259.00000 16.00000 1 1 1
285.00000 259.00000 18.00000 1 1 1
285.00000 261.00000 16.00000 1 1 1
285.00000 261.00000 18.00000 1 1 1
287.00000 259.00000 16.00000 1 1 1
287.00000 259.00000 18.00000 1 1 1
287.00000 261.00000 16.00000 1 1 1
287.00000 261.00000 18.00000 1 1 1
285.00000 259.00000 20.00000 1 1 1
285.00000 259.00000 22.00000 1 1 1
285.00000 261.00000 20.00000 1 1 1
285.00000 261.00000 22.00000 1 1 1
287.00000 261.00000 20.00000 1 1 1
287.00000 261.00000 22.00000 1 1 1
287.00000 263.00000 20.00000 1 1 1
287.00000 263.00000 22.00000 1 1 1
281.00000 259.00000 24.00000 0 1 1
281.00000 259.00000 26.00000 1 1 1
283.00000 259.00000 24.00000 1 1 1
283.00000 259.00000 26.00000 1 1 1
281.00000 259.00000 28.00000 1 1 1
281.00000 259.00000 30.00000 1 1 1
283.00000 259.00000 28.00000 1 1 1
283.00000 259.00000 30.00000 1 1 1
285.00000 259.00000 24.00000 1 1 1
285.00000 259.00000 26.00000 1 1 1
285.00000 261.00000 24.00000 1 1 1
285.00000 261.00000 26.00000 1 1 1
287.00000 261.00000 24.00000 1 1 1
287.00000 261.00000 26.00000 1 1 1
285.00000 259.00000 28.00000 1 1 1
285.00000 259.00000 30.00000 1 1 1
285.00000 261.00000 28.00000 1 1 1
287.00000 259.00000 28.00000 1 1 1
287.00000 259.00000 30.00000 1 1 1
287.00000 261.00000 28.00000 1 1 1
287.00000 261.00000 30.00000 1 1 1
289.00000 261.00000 0.00000 2 2 0
289.00000 261.00000 2.00000 2 2 0
291.00000 261.00000 0.00000 2 2 0
289.00000 261.00000 4.00000 2 2 0
289.00000 261.00000 6.00000 2 2 0
291.00000 261.00000 4.00000 2 2 0
291.00000 261.00000 6.00000 2 2 0
289.00000 263.00000 0.00000 2 2 0
289.00000 263.00000 2.00000 2 2 0
291.00000 263.00000 0.00000 2 2 0
291.00000 263.00000 2.00000 2 2 0
289.00000 263.00000 4.00000 2 2 0
289.00000 263.00000 6.00000 2 2 0
291.00000 263.00000 4.00000 2 2 0
291.00000 263.00000 6.00000 1 1 0
293.00000 263.00000 0.00000 2 2 0
293.00000 263.00000 2.00000 2 2 0
293.00000 265.00000 0.00000 2 2 0
293.00000 265.00000 2.00000 2 2 0
295.00000 265.00000 0.00000 1 1 0
295.00000 265.00000 2.00000 1 1 0
293.00000 263.00000 4.00000 1 1 0
293.00000 263.00000 6.00000 1 1 0
293.00000 265.00000 4.00000 1 1 0
293.00000 265.00000 6.00000 1 1 0
295.00000 263.00000 4.00000 1 1 0
295.00000 263.00000 6.00000 1 1 0
295.00000 265.00000 4.00000 1 1 0
295.00000 265.00000 6.00000 1 1 0
289.00000 261.00000 8.00000 1 1 0
289.00000 261.00000 10.00000 1 1 0
289.00000 261.00000 12.00000 1 1 0
289.00000 261.00000 14.00000 1 1 0
289.00000 263.00000 8.00000 1 1 0
289.00000 263.00000 10.00000 1 1 0
291.00000 263.00000 8.00000 1 1 0
291.00000 263.00000 10.00000 1 1 0
289.00000 263.00000 12.00000 1 1 0
289.00000 263.00000 14.00000 1 1 0
291.00000 263.00000 12.00000 1 1 0
291.00000 263.00000 14.00000 1 1 0
293.00000 263.00000 8.00000 1 1 0
293.00000 263.00000 10.00000 1 1 0
293.00000 265.00000 8.00000 1 1 0
293.00000 265.00000 10.00000 1 1 0
295.00000 265.00000 8.00000 1 1 0
295.00000 265.00000 10.00000 1 1 0
293.00000 263.00000 12.00000 1 1 0
293.00000 263.00000 14.00000 1 1 0
293.00000 265.00000 12.00000 1 1 0
293.00000 265.00000 14.00000 1 1 0
295.00000 265.00000 12.00000 1 1 0
295.00000 265.00000 14.00000 1 1 0
297.00000 265.00000 2.00000 1 1 0
297.00000 265.00000 4.00000 1 1 0
297.00000 265.00000 6.00000 1 1 0
297.00000 265.00000 8.00000 1 1 0
297.00000 265.00000 10.00000 1 1 0
289.00000 261.00000 16.00000 1 1 0
289.00000 261.00000 18.00000 1 1 0
289.00000 261.00000 20.00000 1 1 0
289.00000 261.00000 22.00000 1 1 1
289.00000 263.00000 16.00000 1 1 0
289.00000 263.00000 18.00000 1 1 0
291.00000 263.00000 16.00000 1 1 0
291.00000 263.00000 18.00000 1 1 0
291.00000 265.00000 16.00000 1 1 0
291.00000 265.00000 18.00000 1 1 0
289.00000 263.00000 20.00000 1 1 0
289.00000 263.00000 22.00000 1 1 0
291.00000 263.00000 20.00000 1 1 0
291.00000 263.00000 22.00000 1 1 0
291.00000 265.00000 20.00000 1 1 0
293.00000 263.00000 16.00000 1 1 0
293.00000 265.00000 16.00000 1 1 0
293.00000 265.00000 18.00000 1 1 0
295.00000 265.00000 16.00000 1 1 0
295.00000 265.00000 18.00000 1 1 0
293.00000 263.00000 20.00000 1 1 0
293.00000 263.00000 22.00000 1 1 0
293.00000 265.00000 20.00000 1 1 0
293.00000 265.00000 22.00000 1 1 0
295.00000 265.00000 20.00000 1 1 0
295.00000 265.00000 22.00000 1 1 0
289.00000 261.00000 24.00000 1 1 1
289.00000 261.00000 26.00000 1 1 1
291.00000 261.00000 26.00000 1 1 0
289.00000 259.00000 30.00000 1 1 0
289.00000 261.00000 28.00000 1 1 0
289.00000 261.00000 30.00000 1 1 0
291.00000 259.00000 30.00000 0 0 0
291.00000 261.00000 28.00000 1 1 0
291.00000 261.00000 30.00000 1 1 0
289.00000 263.00000 24.00000 1 1 0
289.00000 263.00000 26.00000 1 1 0
291.00000 263.00000 24.00000 1 1 0
291.00000 263.00000 26.00000 1 1 0
291.00000 263.00000 28.00000 1 1 0
293.00000 261.00000 28.00000 0 0 0
293.00000 261.00000 30.00000 0 0 0
295.00000 261.00000 30.00000 0 0 0
293.00000 263.00000 24.00000 1 1 0
293.00000 263.00000 26.00000 1 1 0
293.00000 265.00000 24.00000 1 1 0
295.00000 263.00000 24.00000 0 0 0
295.00000 263.00000 26.00000 0 0 0
295.00000 265.00000 24.00000 0 0 0
295.00000 265.00000 26.00000 0 0 0
293.00000 263.00000 28.00000 0 0 0
293.00000 263.00000 30.00000 0 0 0
295.00000 263.00000 28.00000 0 0 0
295.00000 263.00000 30.00000 0 0 0
297.00000 265.00000 22.00000 1 1 0
297.00000 261.00000 30.00000 0 0 0
297.00000 263.00000 26.00000 0 0 0
297.00000 265.00000 24.00000 0 0 0
297.00000 265.00000 26.00000 0 0 0
299.00000 265.00000 26.00000 0 0 0
297.00000 263.00000 28.00000 0 0 0
297.00000 263.00000 30.00000 0 0 0
297.00000 265.00000 28.00000 0 0 0
297.00000 265.00000 30.00000 0 0 0
299.00000 265.00000 28.00000 0 0 0
299.00000 265.00000 30.00000 0 0 0
301.00000 265.00000 30.00000 0 0 0
303.00000 265.00000 30.00000 0 0 0
295.00000 267.00000 0.00000 1 1 0
295.00000 267.00000 2.00000 1 1 0
295.00000 267.00000 10.00000 1 1 0
295.00000 267.00000 12.00000 1 1 0
295.00000 267.00000 14.00000 1 1 0
297.00000 267.00000 0.00000 1 1 0
297.00000 267.00000 2.00000 1 1 0
299.00000 267.00000 0.00000 1 1 0
299.00000 267.00000 2.00000 1 1 0
299.00000 269.00000 0.00000 1 1 0
299.00000 269.00000 2.00000 1 1 0
297.00000 267.00000 4.00000 1 1 0
297.00000 267.00000 6.00000 1 1 0
299.00000 267.00000 4.00000 1 1 0
299.00000 267.00000 6.00000 1 1 0
299.00000 269.00000 4.00000 1 1 0
299.00000 269.00000 6.00000 1 1 0
301.00000 269.00000 0.00000 1 1 0
301.00000 269.00000 2.00000 1 1 0
301.00000 269.00000 4.00000 1 1 0
301.00000 269.00000 6.00000 1 1 0
301.00000 271.00000 0.00000 1 1 0
301.00000 271.00000 2.00000 1 1 0
303.00000 271.00000 0.00000 1 1 0
303.00000 271.00000 2.00000 1 1 0
303.00000 273.00000 0.00000 1 1 0
303.00000 273.00000 2.00000 1 1 0
301.00000 271.00000 4.00000 1 1 0
301.00000 271.00000 6.00000 1 1 0
303.00000 271.00000 4.00000 1 1 0
303.00000 271.00000 6.00000 1 1 0
303.00000 273.00000 4.00000 1 1 0
303.00000 273.00000 6.00000 1 1 0
297.00000 267.00000 8.00000 1 1 0
297.00000 267.00000 10.00000 1 1 0
297.00000 269.00000 10.00000 1 1 0
299.00000 267.00000 8.00000 1 1 0
299.00000 267.00000 10.00000 1 1 0
299.00000 269.00000 8.00000 1 1 0
299.00000 269.00000 10.00000 1 1 0
297.00000 267.00000 12.00000 1 1 0
297.00000 267.00000 14.00000 1 1 0
297.00000 269.00000 12.00000 1 1 0
297.00000 269.00000 14.00000 1 1 0
299.00000 269.00000 12.00000 1 1 0
299.00000 269.00000 14.00000 1 1 0
301.00000 269.00000 8.00000 1 1 0
301.00000 269.00000 10.00000 1 1 0
301.00000 269.00000 12.00000 1 1 0
301.00000 269.00000 14.00000 1 1 0
301.00000 271.00000 8.00000 1 1 0
301.00000 271.00000 10.00000 1 1 0
303.00000 271.00000 8.00000 1 1 0
303.00000 271.00000 10.00000 1 1 0
303.00000 273.00000 8.00000 1 1 0
303.00000 273.00000 10.00000 1 1 0
301.00000 271.00000 12.00000 1 1 0
301.00000 271.00000 14.00000 1 1 0
303.00000 271.00000 12.00000 1 1 0
303.00000 271.00000 14.00000 1 1 0
303.00000 273.00000 12.00000 1 1 0
303.00000 273.00000 14.00000 1 1 0
295.00000 267.00000 16.00000 1 1 0
295.00000 267.00000 18.00000 1 1 0
295.00000 267.00000 20.00000 1 1 0
295.00000 267.00000 22.00000 1 1 0
297.00000 267.00000 16.00000 1 1 0
297.00000 267.00000 18.00000 1 1 0
297.00000 269.00000 16.00000 1 1 0
297.00000 269.00000 18.00000 1 1 0
299.00000 267.00000 18.00000 1 1 0
299.00000 269.00000 16.00000 1 1 0
299.00000 269.00000 18.00000 1 1 0
297.00000 267.00000 20.00000 1 1 0
297.00000 267.00000 22.00000 1 1 0
299.00000 267.00000 20.00000 1 1 0
299.00000 267.00000 22.00000 1 1 0
299.00000 269.00000 20.00000 1 1 0
299.00000 269.00000 22.00000 1 1 0
301.00000 269.00000 16.00000 1 1 0
301.00000 269.00000 18.00000 1 1 0
301.00000 269.00000 20.00000 1 1 0
301.00000 269.00000 22.00000 1 1 0
303.00000 269.00000 20.00000 1 1 0
303.00000 269.00000 22.00000 1 1 0
301.00000 271.00000 16.00000 1 1 0
301.00000 271.00000 18.00000 1 1 0
303.00000 271.00000 16.00000 1 1 0
303.00000 271.00000 18.00000 1 1 0
301.00000 271.00000 20.00000 1 1 0
303.00000 271.00000 20.00000 1 1 0
303.00000 271.00000 22.00000 1 1 0
297.00000 267.00000 24.00000 0 0 0
297.00000 267.00000 26.00000 0 0 0
299.00000 267.00000 24.00000 0 0 0
299.00000 267.00000 26.00000 0 0 0
299.00000 269.00000 24.00000 0 0 0
297.00000 267.00000 28.00000 0 0 0
297.00000 267.00000 30.00000 0 0 0
299.00000 267.00000 28.00000 0 0 0
299.00000 267.00000 30.00000 0 0 0
301.00000 267.00000 24.00000 0 0 0
301.00000 267.00000 26.00000 0 0 0
301.00000 269.00000 24.00000 0 0 0
301.00000 269.00000 26.00000 0 0 0
303.00000 267.00000 26.00000 0 0 0
303.00000 269.00000 24.00000 0 0 0
303.00000 269.00000 26.00000 0 0 0
301.00000 267.00000 28.00000 0 0 0
301.00000 267.00000 30.00000 0 0 0
303.00000 267.00000 28.00000 0 0 0
303.00000 267.00000 30.00000 0 0 0
273.00000 253.00000 34.00000 0 1 1
273.00000 253.00000 36.00000 0 1 1
273.00000 253.00000 38.00000 0 1 1
275.00000 253.00000 38.00000 0 1 1
273.00000 255.00000 32.00000 0 1 1
273.00000 255.00000 34.00000 0 1 1
273.00000 257.00000 32.00000 0 1 1
275.00000 255.00000 32.00000 0 1 1
275.00000 255.00000 34.00000 0 1 1
275.00000 257.00000 32.00000 0 1 1
275.00000 257.00000 34.00000 0 1 1
273.00000 255.00000 36.00000 0 1 1
273.00000 255.00000 38.00000 0 1 1
275.00000 255.00000 36.00000 0 1 1
275.00000 255.00000 38.00000 0 1 1
277.00000 253.00000 38.00000 0 1 1
277.00000 255.00000 34.00000 0 1 1
277.00000 257.00000 32.00000 0 1 1
277.00000 257.00000 34.00000 0 1 1
279.00000 255.00000 34.00000 0 1 1
279.00000 257.00000 32.00000 0 1 1
279.00000 257.00000 34.00000 0 1 1
277.00000 255.00000 36.00000 0 1 1
277.00000 255.00000 38.00000 0 1 1
277.00000 257.00000 36.00000 0 1 1
279.00000 255.00000 36.00000 0 1 1
279.00000 255.00000 38.00000 0 1 1
279.00000 257.00000 36.00000 0 1 1
273.00000 251.00000 42.00000 0 1 1
273.00000 253.00000 40.00000 0 1 1
273.00000 253.00000 42.00000 0 1 1
275.00000 253.00000 40.00000 0 1 1
275.00000 253.00000 42.00000 0 1 1
273.00000 251.00000 44.00000 0 1 1
273.00000 251.00000 46.00000 0 1 1
273.00000 253.00000 44.00000 0 1 1
275.00000 251.00000 44.00000 0 1 1
275.00000 251.00000 46.00000 0 1 1
275.00000 253.00000 44.00000 0 1 1
277.00000 253.00000 40.00000 0 1 1
277.00000 253.00000 42.00000 0 1 1
279.00000 253.00000 40.00000 0 1 1
279.00000 253.00000 42.00000 0 1 1
277.00000 251.00000 44.00000 0 1 1
277.00000 251.00000 46.00000 0 1 1
277.00000 253.00000 44.00000 0 1 1
277.00000 253.00000 46.00000 0 1 1
279.00000 251.00000 46.00000 0 1 1
279.00000 253.00000 44.00000 0 1 1
279.00000 253.00000 46.00000 0 1 1
277.00000 255.00000 40.00000 0 1 1
279.00000 255.00000 40.00000 0 1 1
281.00000 255.00000 34.00000 0 1 1
281.00000 257.00000 32.00000 1 1 1
281.00000 257.00000 34.00000 1 1 1
283.00000 257.00000 32.00000 1 1 1
283.00000 257.00000 34.00000 1 1 1
281.00000 255.00000 36.00000 0 1 1
281.00000 255.00000 38.00000 1 1 1
281.00000 257.00000 36.00000 1 1 1
283.00000 255.00000 36.00000 1 1 1
283.00000 255.00000 38.00000 1 1 1
283.00000 257.00000 36.00000 1 1 1
285.00000 257.00000 32.00000 1 1 1
285.00000 257.00000 34.00000 1 1 1
287.00000 257.00000 32.00000 1 1 1
287.00000 257.00000 34.00000 1 1 1
285.00000 255.00000 36.00000 1 1 1
285.00000 255.00000 38.00000 1 1 1
285.00000 257.00000 36.00000 1 1 1
285.00000 257.00000 38.00000 1 1 1
287.00000 255.00000 38.00000 1 1 1
287.00000 257.00000 36.00000 1 1 1
287.00000 257.00000 38.00000 1 1 1
281.00000 253.00000 40.00000 1 1 1
281.00000 253.00000 42.00000 1 1 1
283.00000 253.00000 40.00000 1 1 1
283.00000 253.00000 42.00000 1 1 1
281.00000 251.00000 44.00000 1 1 1
281.00000 251.00000 46.00000 1 1 1
281.00000 253.00000 44.00000 1 1 1
281.00000 253.00000 46.00000 1 1 1
283.00000 251.00000 44.00000 1 1 1
283.00000 251.00000 46.00000 1 1 1
283.00000 253.00000 44.00000 1 1 1
283.00000 253.00000 46.00000 1 1 1
281.00000 255.00000 40.00000 1 1 1
283.00000 255.00000 40.00000 1 1 1
285.00000 253.00000 40.00000 1 1 1
285.00000 253.00000 42.00000 1 1 1
287.00000 253.00000 42.00000 1 1 1
285.00000 251.00000 46.00000 1 1 1
285.00000 253.00000 44.00000 1 1 1
285.00000 253.00000 46.00000 1 1 1
287.00000 253.00000 44.00000 1 1 1
287.00000 253.00000 46.00000 1 1 1
285.00000 255.00000 40.00000 1 1 1
285.00000 255.00000 42.00000 1 1 1
287.00000 255.00000 40.00000 1 1 1
287.00000 255.00000 42.00000 1 1 1
285.00000 259.00000 32.00000 1 1 1
287.00000 259.00000 32.00000 1 1 1
287.00000 259.00000 34.00000 1 1 1
273.00000 251.00000 48.00000 0 1 1
273.00000 251.00000 50.00000 0 1 1
275.00000 251.00000 48.00000 0 1 1
275.00000 251.00000 50.00000 0 1 1
273.00000 251.00000 52.00000 0 1 1
275.00000 251.00000 52.00000 0 1 1
277.00000 251.00000 48.00000 0 1 1
277.00000 251.00000 50.00000 0 1 1
279.00000 251.00000 48.00000 0 1 1
279.00000 251.00000 50.00000 1 1 1
277.00000 251.00000 52.00000 0 1 1
279.00000 251.00000 52.00000 1 1 1
279.00000 251.00000 54.00000 1 1 1
281.00000 251.00000 48.00000 1 1 1
281.00000 251.00000 50.00000 1 1 1
283.00000 251.00000 48.00000 1 1 1
283.00000 251.00000 50.00000 1 1 1
281.00000 251.00000 52.00000 1 1 1
281.00000 251.00000 54.00000 1 1 1
283.00000 251.00000 52.00000 1 1 1
283.00000 251.00000 54.00000 1 1 1
285.00000 251.00000 48.00000 1 1 1
285.00000 251.00000 50.00000 1 1 1
285.00000 253.00000 48.00000 1 1 1
287.00000 251.00000 48.00000 1 1 1
287.00000 251.00000 50.00000 1 1 1
287.00000 253.00000 48.00000 1 1 1
287.00000 253.00000 50.00000 1 1 1
285.00000 251.00000 52.00000 1 1 1
285.00000 251.00000 54.00000 1 1 1
287.00000 251.00000 52.00000 1 1 1
287.00000 251.00000 54.00000 1 1 1
283.00000 251.00000 56.00000 1 1 1
285.00000 251.00000 56.00000 1 1 1
287.00000 251.00000 56.00000 1 1 1
287.00000 251.00000 58.00000 1 1 0
287.00000 251.00000 60.00000 1 1 0
289.00000 257.00000 34.00000 1 1 1
291.00000 257.00000 34.00000 1 1 0
289.00000 255.00000 38.00000 1 1 1
289.00000 257.00000 36.00000 1 1 0
289.00000 257.00000 38.00000 1 1 1
291.00000 257.00000 36.00000 1 1 0
291.00000 257.00000 38.00000 1 1 0
293.00000 257.00000 36.00000 1 1 0
293.00000 257.00000 38.00000 1 1 0
295.00000 257.00000 36.00000 1 1 0
295.00000 257.00000 38.00000 1 1 0
289.00000 253.00000 42.00000 1 1 1
289.00000 253.00000 44.00000 1 1 0
289.00000 253.00000 46.00000 1 1 0
291.00000 253.00000 44.00000 1 1 0
291.00000 253.00000 46.00000 1 1 0
289.00000 255.00000 40.00000 1 1 1
289.00000 255.00000 42.00000 1 1 0
289.00000 257.00000 40.00000 1 1 0
291.00000 255.00000 40.00000 1 1 0
291.00000 255.00000 42.00000 1 1 0
291.00000 257.00000 40.00000 1 1 0
289.00000 255.00000 44.00000 1 1 0
291.00000 255.00000 44.00000 1 1 0
291.00000 255.00000 46.00000 1 1 0
293.00000 253.00000 46.00000 1 1 0
295.00000 253.00000 46.00000 1 1 0
293.00000 255.00000 40.00000 1 1 0
293.00000 255.00000 42.00000 1 1 0
293.00000 257.00000 40.00000 1 1 0
295.00000 255.00000 40.00000 1 1 0
295.00000 255.00000 42.00000 1 1 0
295.00000 257.00000 40.00000 1 1 0
295.00000 257.00000 42.00000 1 1 0
293.00000 255.00000 44.00000 1 1 0
293.00000 255.00000 46.00000 1 1 0
295.00000 255.00000 44.00000 1 1 0
295.00000 255.00000 46.00000 1 1 0
289.00000 259.00000 32.00000 1 1 1
289.00000 259.00000 34.00000 1 1 1
291.00000 259.00000 32.00000 1 1 0
291.00000 259.00000 34.00000 1 1 0
291.00000 261.00000 32.00000 0 0 0
291.00000 259.00000 36.00000 1 1 0
293.00000 259.00000 32.00000 0 0 0
293.00000 259.00000 34.00000 0 0 0
293.00000 261.00000 32.00000 0 0 0
295.00000 259.00000 32.00000 0 0 0
295.00000 259.00000 34.00000 0 0 0
295.00000 261.00000 32.00000 0 0 0
295.00000 261.00000 34.00000 0 0 0
293.00000 259.00000 36.00000 1 1 0
295.00000 259.00000 36.00000 1 1 0
295.00000 259.00000 38.00000 1 1 0
295.00000 261.00000 36.00000 1 1 0
297.00000 257.00000 38.00000 1 1 0
297.00000 255.00000 42.00000 1 1 0
297.00000 257.00000 40.00000 1 1 0
297.00000 257.00000 42.00000 1 1 0
299.00000 257.00000 40.00000 1 1 0
299.00000 257.00000 42.00000 1 1 0
297.00000 255.00000 44.00000 1 1 0
297.00000 255.00000 46.00000 1 1 0
297.00000 257.00000 44.00000 1 1 0
299.00000 255.00000 44.00000 1 1 0
299.00000 255.00000 46.00000 1 1 0
299.00000 257.00000 44.00000 1 1 0
299.00000 257.00000 46.00000 1 1 0
301.00000 257.00000 40.00000 1 1 0
301.00000 257.00000 42.00000 1 1 0
303.00000 257.00000 42.00000 1 1 0
301.00000 255.00000 46.00000 1 1 0
301.00000 257.00000 44.00000 1 1 0
301.00000 257.00000 46.00000 1 1 0
303.00000 255.00000 46.00000 1 1 0
303.00000 257.00000 44.00000 1 1 0
303.00000 257.00000 46.00000 1 1 0
297.00000 261.00000 32.00000 0 0 0
