ply
format ascii 1.0
element vertex 1241
property float x
property float y
property float z
property uchar red
property uchar green
property uchar blue
element face 0
property list uint8 int32 vertex_index
end_header
269.00000 299.00000 200.00000 10 8 2
269.00000 299.00000 204.00000 11 8 2
269.00000 303.00000 200.00000 10 8 2
269.00000 303.00000 204.00000 11 8 2
265.00000 307.00000 196.00000 10 10 6
269.00000 307.00000 192.00000 9 9 5
269.00000 307.00000 196.00000 9 9 5
265.00000 307.00000 200.00000 11 9 5
269.00000 307.00000 200.00000 11 9 3
269.00000 307.00000 204.00000 10 7 1
269.00000 311.00000 200.00000 10 8 2
261.00000 299.00000 220.00000 32 25 15
265.00000 299.00000 212.00000 15 10 1
269.00000 299.00000 208.00000 11 8 1
269.00000 299.00000 212.00000 14 8 2
265.00000 299.00000 216.00000 26 19 9
265.00000 299.00000 220.00000 30 23 13
265.00000 303.00000 220.00000 48 39 29
269.00000 299.00000 216.00000 21 14 6
269.00000 299.00000 220.00000 19 12 2
269.00000 303.00000 216.00000 18 11 3
269.00000 303.00000 220.00000 28 21 11
241.00000 283.00000 224.00000 54 44 28
241.00000 283.00000 228.00000 90 78 59
241.00000 287.00000 224.00000 64 54 38
241.00000 287.00000 228.00000 79 69 53
245.00000 283.00000 224.00000 67 57 41
245.00000 283.00000 228.00000 80 70 54
245.00000 287.00000 224.00000 73 63 47
245.00000 287.00000 228.00000 87 77 61
241.00000 283.00000 232.00000 96 84 65
245.00000 283.00000 232.00000 95 83 65
245.00000 283.00000 236.00000 99 84 66
245.00000 287.00000 232.00000 92 80 62
249.00000 287.00000 224.00000 72 62 48
249.00000 287.00000 228.00000 89 79 63
249.00000 283.00000 232.00000 93 81 63
249.00000 283.00000 236.00000 97 85 67
249.00000 287.00000 232.00000 100 88 70
249.00000 287.00000 236.00000 102 90 72
253.00000 283.00000 236.00000 91 79 61
253.00000 287.00000 232.00000 106 93 78
253.00000 287.00000 236.00000 99 87 69
249.00000 291.00000 224.00000 86 76 62
249.00000 291.00000 228.00000 108 98 82
253.00000 291.00000 224.00000 76 67 55
253.00000 291.00000 228.00000 106 96 82
253.00000 295.00000 224.00000 96 87 75
253.00000 295.00000 228.00000 133 123 109
249.00000 291.00000 232.00000 108 98 82
253.00000 291.00000 232.00000 110 100 86
253.00000 291.00000 236.00000 110 100 86
253.00000 295.00000 232.00000 123 113 99
253.00000 295.00000 236.00000 112 102 88
249.00000 283.00000 240.00000 86 74 56
253.00000 283.00000 240.00000 83 68 51
253.00000 283.00000 244.00000 70 55 38
253.00000 287.00000 240.00000 89 76 61
253.00000 287.00000 244.00000 77 62 45
253.00000 291.00000 240.00000 96 83 68
257.00000 295.00000 224.00000 80 71 59
257.00000 295.00000 228.00000 108 99 87
261.00000 295.00000 224.00000 60 51 39
257.00000 291.00000 232.00000 117 107 93
257.00000 291.00000 236.00000 113 103 89
257.00000 295.00000 232.00000 114 104 92
257.00000 295.00000 236.00000 111 102 90
261.00000 295.00000 232.00000 112 103 91
261.00000 295.00000 236.00000 106 96 84
257.00000 283.00000 244.00000 69 54 37
257.00000 287.00000 240.00000 81 68 53
257.00000 287.00000 244.00000 70 55 38
257.00000 283.00000 248.00000 64 49 32
257.00000 283.00000 252.00000 62 47 30
257.00000 287.00000 248.00000 69 54 37
257.00000 287.00000 252.00000 60 45 28
261.00000 283.00000 248.00000 63 48 31
261.00000 283.00000 252.00000 59 44 27
261.00000 287.00000 248.00000 60 45 28
261.00000 287.00000 252.00000 53 38 21
257.00000 291.00000 240.00000 88 75 62
257.00000 291.00000 244.00000 80 67 52
257.00000 295.00000 240.00000 89 76 63
257.00000 295.00000 244.00000 83 70 57
261.00000 291.00000 244.00000 80 67 52
261.00000 295.00000 240.00000 93 83 69
261.00000 295.00000 244.00000 88 75 62
257.00000 291.00000 248.00000 71 56 41
257.00000 291.00000 252.00000 68 53 38
261.00000 291.00000 248.00000 76 63 48
261.00000 291.00000 252.00000 65 50 35
261.00000 295.00000 248.00000 80 67 54
261.00000 295.00000 252.00000 75 62 47
265.00000 287.00000 252.00000 61 46 29
265.00000 295.00000 244.00000 89 76 63
265.00000 291.00000 252.00000 70 55 40
265.00000 295.00000 248.00000 87 74 61
265.00000 295.00000 252.00000 77 64 49
257.00000 299.00000 224.00000 84 75 63
257.00000 299.00000 228.00000 113 104 92
261.00000 299.00000 224.00000 51 42 32
261.00000 299.00000 228.00000 92 83 71
261.00000 303.00000 228.00000 95 86 74
257.00000 299.00000 232.00000 112 103 91
257.00000 299.00000 236.00000 109 99 87
261.00000 299.00000 232.00000 108 99 87
261.00000 299.00000 236.00000 111 102 90
261.00000 303.00000 232.00000 102 93 81
261.00000 303.00000 236.00000 112 102 90
265.00000 299.00000 224.00000 44 37 27
265.00000 299.00000 228.00000 78 69 59
265.00000 303.00000 224.00000 48 41 31
265.00000 303.00000 228.00000 82 73 63
269.00000 303.00000 224.00000 36 29 19
269.00000 303.00000 228.00000 64 55 45
265.00000 299.00000 232.00000 101 92 82
265.00000 299.00000 236.00000 107 97 85
265.00000 303.00000 232.00000 103 94 84
265.00000 303.00000 236.00000 118 109 97
269.00000 303.00000 232.00000 91 82 72
269.00000 303.00000 236.00000 100 91 81
265.00000 307.00000 224.00000 65 56 46
265.00000 307.00000 228.00000 73 64 54
269.00000 307.00000 224.00000 56 47 37
269.00000 307.00000 228.00000 64 55 45
269.00000 311.00000 228.00000 56 47 37
265.00000 307.00000 232.00000 92 83 73
265.00000 307.00000 236.00000 103 94 84
269.00000 307.00000 232.00000 81 72 62
269.00000 307.00000 236.00000 92 83 73
269.00000 311.00000 232.00000 60 51 41
269.00000 311.00000 236.00000 77 68 58
261.00000 299.00000 240.00000 99 89 77
261.00000 299.00000 244.00000 91 78 65
261.00000 303.00000 240.00000 106 96 84
265.00000 299.00000 240.00000 102 92 80
265.00000 299.00000 244.00000 97 87 75
265.00000 303.00000 240.00000 103 93 81
265.00000 303.00000 244.00000 100 90 78
269.00000 303.00000 240.00000 104 94 82
269.00000 303.00000 244.00000 99 89 77
265.00000 299.00000 248.00000 94 81 68
265.00000 299.00000 252.00000 92 79 66
265.00000 303.00000 248.00000 94 84 72
269.00000 299.00000 248.00000 92 79 66
269.00000 299.00000 252.00000 90 77 64
269.00000 303.00000 248.00000 94 81 68
269.00000 303.00000 252.00000 91 78 65
265.00000 307.00000 240.00000 100 90 78
269.00000 307.00000 240.00000 90 80 68
269.00000 307.00000 244.00000 90 80 68
269.00000 311.00000 240.00000 80 71 61
269.00000 311.00000 244.00000 82 72 60
269.00000 307.00000 248.00000 90 80 68
269.00000 307.00000 252.00000 89 76 63
269.00000 311.00000 248.00000 74 64 52
269.00000 311.00000 252.00000 77 67 55
273.00000 303.00000 192.00000 9 9 5
277.00000 303.00000 192.00000 10 8 4
273.00000 299.00000 204.00000 10 7 1
273.00000 303.00000 204.00000 11 8 2
273.00000 307.00000 192.00000 10 8 4
273.00000 307.00000 196.00000 10 8 2
273.00000 311.00000 196.00000 9 7 1
277.00000 307.00000 192.00000 10 8 4
277.00000 307.00000 196.00000 10 8 4
277.00000 311.00000 192.00000 10 8 4
277.00000 311.00000 196.00000 10 8 4
273.00000 307.00000 200.00000 10 8 2
273.00000 307.00000 204.00000 8 5 0
273.00000 311.00000 200.00000 9 6 0
273.00000 311.00000 204.00000 8 5 0
277.00000 307.00000 204.00000 8 5 0
277.00000 311.00000 200.00000 10 7 1
277.00000 311.00000 204.00000 6 3 0
281.00000 303.00000 192.00000 9 7 3
281.00000 307.00000 192.00000 10 8 4
281.00000 311.00000 192.00000 10 8 4
281.00000 311.00000 196.00000 10 8 4
285.00000 307.00000 192.00000 9 7 3
285.00000 311.00000 192.00000 10 8 4
285.00000 311.00000 196.00000 10 8 4
273.00000 299.00000 208.00000 8 5 0
273.00000 299.00000 212.00000 7 1 0
273.00000 303.00000 208.00000 6 3 0
273.00000 303.00000 212.00000 7 1 0
277.00000 299.00000 208.00000 7 1 0
277.00000 299.00000 212.00000 5 0 0
277.00000 303.00000 208.00000 5 2 0
277.00000 303.00000 212.00000 6 0 0
273.00000 299.00000 216.00000 5 0 0
273.00000 303.00000 216.00000 5 0 0
273.00000 303.00000 220.00000 5 0 0
277.00000 303.00000 216.00000 5 0 0
277.00000 303.00000 220.00000 5 0 0
273.00000 307.00000 208.00000 6 3 0
277.00000 307.00000 208.00000 4 1 0
277.00000 307.00000 212.00000 5 0 0
277.00000 311.00000 208.00000 3 0 0
277.00000 311.00000 212.00000 5 0 0
273.00000 307.00000 220.00000 10 3 0
277.00000 307.00000 216.00000 5 0 0
277.00000 307.00000 220.00000 5 0 0
281.00000 303.00000 212.00000 5 0 0
281.00000 303.00000 216.00000 5 0 0
281.00000 307.00000 212.00000 5 0 0
281.00000 311.00000 208.00000 3 0 0
281.00000 311.00000 212.00000 5 0 0
281.00000 307.00000 216.00000 5 0 0
281.00000 307.00000 220.00000 6 0 0
281.00000 311.00000 216.00000 5 0 0
281.00000 311.00000 220.00000 6 0 0
285.00000 311.00000 216.00000 5 0 0
285.00000 311.00000 220.00000 5 0 0
289.00000 307.00000 192.00000 9 7 3
289.00000 311.00000 192.00000 9 7 3
289.00000 311.00000 196.00000 10 8 4
293.00000 311.00000 192.00000 9 7 3
273.00000 303.00000 224.00000 23 16 8
273.00000 307.00000 224.00000 32 25 17
273.00000 307.00000 228.00000 45 38 28
273.00000 311.00000 224.00000 28 21 13
273.00000 311.00000 228.00000 41 34 26
277.00000 307.00000 224.00000 14 7 0
277.00000 311.00000 224.00000 9 2 0
277.00000 311.00000 228.00000 21 14 6
273.00000 311.00000 232.00000 54 45 35
273.00000 311.00000 236.00000 59 50 40
281.00000 307.00000 224.00000 6 0 0
281.00000 311.00000 224.00000 6 0 0
281.00000 311.00000 228.00000 12 5 0
285.00000 311.00000 224.00000 6 0 0
285.00000 311.00000 228.00000 6 0 0
273.00000 307.00000 244.00000 81 71 59
273.00000 311.00000 240.00000 70 61 51
273.00000 311.00000 244.00000 70 61 51
273.00000 307.00000 248.00000 82 72 60
273.00000 307.00000 252.00000 79 69 57
273.00000 311.00000 248.00000 74 64 52
273.00000 311.00000 252.00000 70 60 48
293.00000 315.00000 188.00000 8 6 2
301.00000 315.00000 180.00000 6 4 0
297.00000 315.00000 184.00000 7 5 1
297.00000 315.00000 188.00000 7 5 1
301.00000 315.00000 184.00000 7 5 1
301.00000 315.00000 188.00000 7 5 1
301.00000 319.00000 188.00000 7 5 1
269.00000 315.00000 236.00000 62 53 43
269.00000 319.00000 236.00000 58 49 39
269.00000 315.00000 240.00000 60 51 41
269.00000 315.00000 244.00000 64 55 45
269.00000 319.00000 240.00000 53 44 36
269.00000 319.00000 244.00000 55 46 36
269.00000 315.00000 248.00000 57 48 38
269.00000 315.00000 252.00000 58 47 38
269.00000 319.00000 248.00000 48 39 29
269.00000 319.00000 252.00000 47 38 28
269.00000 323.00000 248.00000 40 31 21
269.00000 323.00000 252.00000 37 28 20
269.00000 327.00000 248.00000 34 25 17
269.00000 327.00000 252.00000 35 26 18
269.00000 331.00000 248.00000 32 23 15
269.00000 331.00000 252.00000 34 25 17
269.00000 335.00000 248.00000 27 20 12
269.00000 335.00000 252.00000 27 20 12
265.00000 343.00000 252.00000 14 8 2
269.00000 339.00000 252.00000 23 16 8
269.00000 343.00000 252.00000 17 10 4
269.00000 375.00000 220.00000 7 3 0
253.00000 359.00000 244.00000 8 2 0
249.00000 359.00000 252.00000 8 2 0
253.00000 359.00000 252.00000 7 1 0
253.00000 367.00000 236.00000 6 3 0
249.00000 371.00000 236.00000 6 3 0
249.00000 375.00000 236.00000 6 3 0
253.00000 371.00000 232.00000 6 3 0
253.00000 371.00000 236.00000 6 3 0
253.00000 375.00000 232.00000 6 3 0
253.00000 375.00000 236.00000 6 3 0
245.00000 367.00000 240.00000 8 2 0
245.00000 367.00000 244.00000 8 2 0
241.00000 367.00000 252.00000 8 2 0
245.00000 363.00000 252.00000 8 2 0
245.00000 367.00000 248.00000 8 2 0
245.00000 367.00000 252.00000 8 2 0
241.00000 371.00000 244.00000 8 2 0
245.00000 371.00000 240.00000 8 2 0
245.00000 371.00000 244.00000 8 2 0
245.00000 375.00000 244.00000 8 2 0
241.00000 371.00000 252.00000 8 2 0
245.00000 371.00000 248.00000 8 2 0
245.00000 371.00000 252.00000 8 2 0
245.00000 375.00000 248.00000 8 2 0
245.00000 375.00000 252.00000 8 2 0
249.00000 363.00000 244.00000 8 2 0
249.00000 367.00000 240.00000 8 2 0
249.00000 367.00000 244.00000 8 2 0
253.00000 363.00000 244.00000 8 2 0
253.00000 367.00000 240.00000 6 3 0
253.00000 367.00000 244.00000 6 3 0
249.00000 363.00000 248.00000 8 2 0
249.00000 363.00000 252.00000 8 2 0
249.00000 367.00000 248.00000 8 2 0
249.00000 367.00000 252.00000 8 2 0
253.00000 363.00000 248.00000 8 2 0
253.00000 363.00000 252.00000 7 1 0
253.00000 367.00000 248.00000 8 2 0
253.00000 367.00000 252.00000 7 1 0
249.00000 371.00000 240.00000 6 3 0
249.00000 371.00000 244.00000 8 2 0
249.00000 375.00000 240.00000 6 3 0
249.00000 375.00000 244.00000 8 2 0
253.00000 371.00000 240.00000 6 3 0
253.00000 371.00000 244.00000 6 3 0
253.00000 375.00000 240.00000 6 3 0
253.00000 375.00000 244.00000 6 3 0
249.00000 371.00000 248.00000 7 1 0
249.00000 375.00000 248.00000 7 1 0
249.00000 375.00000 252.00000 7 1 0
253.00000 375.00000 248.00000 7 1 0
253.00000 375.00000 252.00000 7 1 0
261.00000 359.00000 236.00000 9 6 0
269.00000 347.00000 236.00000 20 14 9
269.00000 351.00000 232.00000 17 11 6
269.00000 351.00000 236.00000 18 12 7
265.00000 355.00000 236.00000 11 8 2
265.00000 359.00000 232.00000 9 5 2
265.00000 359.00000 236.00000 9 6 0
269.00000 355.00000 232.00000 12 9 3
269.00000 355.00000 236.00000 11 8 2
269.00000 359.00000 232.00000 9 5 2
269.00000 359.00000 236.00000 10 7 1
261.00000 347.00000 252.00000 9 3 0
261.00000 351.00000 252.00000 7 1 0
257.00000 359.00000 244.00000 8 2 0
261.00000 355.00000 244.00000 9 3 0
261.00000 359.00000 240.00000 9 6 0
261.00000 359.00000 244.00000 9 3 0
257.00000 355.00000 252.00000 7 1 0
257.00000 359.00000 248.00000 7 1 0
257.00000 359.00000 252.00000 7 1 0
261.00000 355.00000 248.00000 9 3 0
261.00000 355.00000 252.00000 6 0 0
261.00000 359.00000 248.00000 7 1 0
261.00000 359.00000 252.00000 7 1 0
265.00000 351.00000 244.00000 12 6 1
269.00000 347.00000 240.00000 17 11 6
269.00000 347.00000 244.00000 16 10 4
269.00000 351.00000 240.00000 16 10 5
269.00000 351.00000 244.00000 14 8 3
265.00000 347.00000 248.00000 12 6 0
265.00000 347.00000 252.00000 10 4 0
265.00000 351.00000 248.00000 10 4 0
265.00000 351.00000 252.00000 6 0 0
269.00000 347.00000 248.00000 13 7 1
269.00000 347.00000 252.00000 12 6 0
269.00000 351.00000 248.00000 11 5 0
269.00000 351.00000 252.00000 10 4 0
265.00000 355.00000 240.00000 12 6 1
265.00000 355.00000 244.00000 10 4 0
265.00000 359.00000 240.00000 10 7 1
265.00000 359.00000 244.00000 11 5 0
269.00000 355.00000 240.00000 13 7 2
269.00000 355.00000 244.00000 11 5 0
269.00000 359.00000 240.00000 10 7 1
265.00000 355.00000 248.00000 9 3 0
265.00000 355.00000 252.00000 7 1 0
269.00000 355.00000 248.00000 10 4 0
261.00000 367.00000 228.00000 7 3 0
257.00000 363.00000 236.00000 7 4 0
257.00000 367.00000 232.00000 6 2 0
257.00000 367.00000 236.00000 7 4 0
261.00000 363.00000 232.00000 7 3 0
261.00000 363.00000 236.00000 7 4 0
261.00000 367.00000 232.00000 7 3 0
261.00000 367.00000 236.00000 6 2 0
257.00000 371.00000 228.00000 7 3 0
257.00000 375.00000 228.00000 7 3 0
261.00000 371.00000 228.00000 7 3 0
261.00000 375.00000 228.00000 7 3 0
257.00000 371.00000 232.00000 6 2 0
257.00000 371.00000 236.00000 6 3 0
257.00000 375.00000 232.00000 6 2 0
257.00000 375.00000 236.00000 6 3 0
261.00000 371.00000 232.00000 7 3 0
261.00000 375.00000 232.00000 7 3 0
265.00000 367.00000 228.00000 7 3 0
269.00000 363.00000 228.00000 7 3 0
269.00000 367.00000 228.00000 7 3 0
265.00000 363.00000 232.00000 7 3 0
265.00000 363.00000 236.00000 8 5 0
265.00000 367.00000 232.00000 7 3 0
269.00000 363.00000 232.00000 7 3 0
269.00000 367.00000 232.00000 7 3 0
265.00000 371.00000 228.00000 7 3 0
265.00000 375.00000 224.00000 7 3 0
265.00000 375.00000 228.00000 7 3 0
269.00000 371.00000 224.00000 7 3 0
269.00000 371.00000 228.00000 7 3 0
269.00000 375.00000 224.00000 7 3 0
269.00000 375.00000 228.00000 7 3 0
265.00000 371.00000 232.00000 7 3 0
257.00000 363.00000 240.00000 6 3 0
257.00000 363.00000 244.00000 8 2 0
257.00000 367.00000 240.00000 6 3 0
257.00000 367.00000 244.00000 6 3 0
261.00000 363.00000 240.00000 8 5 0
261.00000 363.00000 244.00000 7 4 0
257.00000 363.00000 248.00000 7 1 0
257.00000 363.00000 252.00000 7 1 0
257.00000 375.00000 240.00000 6 3 0
277.00000 315.00000 192.00000 10 8 4
277.00000 315.00000 196.00000 11 7 4
277.00000 315.00000 200.00000 9 6 0
277.00000 315.00000 204.00000 7 4 0
281.00000 315.00000 192.00000 10 8 4
281.00000 315.00000 196.00000 11 9 5
285.00000 315.00000 192.00000 11 9 5
285.00000 315.00000 196.00000 11 9 5
285.00000 319.00000 196.00000 11 9 5
281.00000 315.00000 200.00000 9 6 0
281.00000 315.00000 204.00000 5 2 0
281.00000 319.00000 200.00000 10 6 3
281.00000 319.00000 204.00000 8 4 1
285.00000 315.00000 200.00000 11 7 4
285.00000 319.00000 200.00000 11 7 4
285.00000 319.00000 204.00000 8 4 1
285.00000 323.00000 204.00000 8 4 1
277.00000 315.00000 208.00000 4 1 0
281.00000 315.00000 208.00000 5 2 0
281.00000 315.00000 212.00000 5 0 0
281.00000 319.00000 208.00000 4 1 0
281.00000 319.00000 212.00000 5 0 0
285.00000 319.00000 208.00000 4 1 0
285.00000 319.00000 212.00000 5 0 0
281.00000 315.00000 216.00000 5 0 0
281.00000 315.00000 220.00000 5 0 0
281.00000 319.00000 216.00000 5 0 0
281.00000 319.00000 220.00000 5 0 0
285.00000 315.00000 216.00000 5 0 0
285.00000 315.00000 220.00000 5 0 0
285.00000 319.00000 216.00000 5 0 0
285.00000 319.00000 220.00000 5 0 0
285.00000 323.00000 208.00000 7 3 0
285.00000 323.00000 212.00000 5 2 0
281.00000 323.00000 216.00000 5 0 0
281.00000 323.00000 220.00000 5 0 0
285.00000 323.00000 216.00000 5 0 0
285.00000 323.00000 220.00000 5 0 0
285.00000 327.00000 220.00000 10 7 1
285.00000 331.00000 220.00000 17 13 10
289.00000 315.00000 192.00000 10 8 4
289.00000 315.00000 196.00000 10 8 4
289.00000 319.00000 196.00000 10 8 4
293.00000 315.00000 192.00000 8 6 2
293.00000 315.00000 196.00000 9 7 3
293.00000 319.00000 192.00000 9 7 3
293.00000 319.00000 196.00000 9 7 3
289.00000 319.00000 200.00000 9 7 3
289.00000 319.00000 204.00000 9 5 2
293.00000 319.00000 200.00000 9 7 3
289.00000 323.00000 200.00000 9 7 3
289.00000 323.00000 204.00000 9 7 3
289.00000 327.00000 204.00000 10 8 6
293.00000 323.00000 200.00000 9 7 5
293.00000 323.00000 204.00000 9 7 5
293.00000 327.00000 204.00000 9 7 5
297.00000 315.00000 192.00000 8 6 2
297.00000 319.00000 192.00000 8 6 2
297.00000 319.00000 196.00000 8 6 2
301.00000 315.00000 192.00000 8 6 2
301.00000 319.00000 192.00000 8 6 2
301.00000 319.00000 196.00000 8 6 2
297.00000 319.00000 200.00000 8 6 4
297.00000 323.00000 196.00000 8 6 4
301.00000 323.00000 192.00000 7 5 1
301.00000 323.00000 196.00000 7 5 3
301.00000 327.00000 196.00000 7 5 3
297.00000 323.00000 200.00000 8 6 4
297.00000 323.00000 204.00000 7 5 3
297.00000 327.00000 200.00000 7 5 3
297.00000 327.00000 204.00000 7 5 3
301.00000 323.00000 200.00000 7 5 3
301.00000 327.00000 200.00000 7 5 3
301.00000 327.00000 204.00000 6 4 2
289.00000 323.00000 208.00000 10 6 3
289.00000 323.00000 212.00000 7 3 0
289.00000 327.00000 208.00000 11 9 7
289.00000 327.00000 212.00000 11 7 4
293.00000 327.00000 208.00000 9 7 5
293.00000 327.00000 212.00000 10 8 6
289.00000 323.00000 216.00000 9 5 2
289.00000 323.00000 220.00000 7 1 0
289.00000 327.00000 216.00000 14 10 9
289.00000 327.00000 220.00000 12 8 5
293.00000 327.00000 216.00000 11 9 7
297.00000 327.00000 208.00000 8 6 4
297.00000 331.00000 204.00000 6 4 4
301.00000 331.00000 200.00000 6 4 2
301.00000 331.00000 204.00000 6 4 4
301.00000 335.00000 204.00000 6 4 4
289.00000 335.00000 212.00000 11 9 7
293.00000 331.00000 208.00000 10 8 6
293.00000 331.00000 212.00000 9 7 5
293.00000 335.00000 208.00000 9 7 5
293.00000 335.00000 212.00000 10 8 6
289.00000 331.00000 216.00000 11 9 7
289.00000 331.00000 220.00000 15 11 8
289.00000 335.00000 216.00000 11 9 7
289.00000 335.00000 220.00000 12 10 8
293.00000 331.00000 216.00000 9 7 5
293.00000 331.00000 220.00000 11 7 6
293.00000 335.00000 216.00000 10 8 6
293.00000 335.00000 220.00000 10 8 6
289.00000 339.00000 212.00000 10 8 6
293.00000 339.00000 212.00000 10 8 6
289.00000 339.00000 216.00000 9 7 5
289.00000 339.00000 220.00000 10 8 6
289.00000 343.00000 216.00000 7 5 5
293.00000 339.00000 216.00000 9 7 5
293.00000 339.00000 220.00000 9 7 5
293.00000 343.00000 216.00000 6 4 4
293.00000 343.00000 220.00000 7 5 5
297.00000 331.00000 208.00000 7 5 3
297.00000 331.00000 212.00000 7 5 3
297.00000 335.00000 208.00000 7 5 3
297.00000 335.00000 212.00000 7 5 5
301.00000 331.00000 208.00000 6 4 4
301.00000 335.00000 208.00000 6 4 4
301.00000 335.00000 212.00000 6 4 4
297.00000 339.00000 212.00000 7 5 5
301.00000 339.00000 208.00000 4 2 2
301.00000 339.00000 212.00000 4 2 2
301.00000 343.00000 212.00000 0 0 2
297.00000 339.00000 216.00000 6 4 4
297.00000 343.00000 216.00000 5 3 3
301.00000 339.00000 216.00000 5 3 3
301.00000 343.00000 216.00000 3 1 1
273.00000 315.00000 228.00000 38 31 23
277.00000 315.00000 228.00000 31 24 16
277.00000 319.00000 228.00000 28 21 13
273.00000 315.00000 232.00000 42 33 25
273.00000 315.00000 236.00000 49 40 30
273.00000 319.00000 232.00000 36 27 19
273.00000 319.00000 236.00000 34 25 17
277.00000 315.00000 232.00000 26 19 11
277.00000 319.00000 232.00000 30 21 13
277.00000 319.00000 236.00000 26 17 9
277.00000 323.00000 236.00000 19 10 2
281.00000 315.00000 228.00000 15 8 0
281.00000 319.00000 224.00000 5 0 0
281.00000 319.00000 228.00000 20 13 5
285.00000 315.00000 224.00000 5 0 0
285.00000 315.00000 228.00000 12 5 0
285.00000 319.00000 224.00000 5 0 0
285.00000 319.00000 228.00000 6 0 0
281.00000 315.00000 232.00000 19 12 4
281.00000 319.00000 232.00000 16 9 1
281.00000 319.00000 236.00000 19 10 2
285.00000 319.00000 232.00000 13 6 0
281.00000 323.00000 224.00000 5 0 0
281.00000 323.00000 228.00000 6 0 0
285.00000 323.00000 224.00000 5 0 0
285.00000 323.00000 228.00000 5 0 0
285.00000 327.00000 224.00000 12 6 1
285.00000 327.00000 228.00000 10 4 0
281.00000 323.00000 232.00000 12 5 0
281.00000 323.00000 236.00000 13 4 0
281.00000 327.00000 236.00000 8 0 0
285.00000 323.00000 232.00000 8 1 0
285.00000 323.00000 236.00000 8 1 0
285.00000 327.00000 232.00000 7 1 0
285.00000 327.00000 236.00000 7 0 0
273.00000 315.00000 240.00000 52 43 33
273.00000 315.00000 244.00000 64 55 45
273.00000 319.00000 240.00000 41 32 24
273.00000 319.00000 244.00000 51 42 32
277.00000 319.00000 240.00000 29 20 12
273.00000 315.00000 248.00000 55 46 36
273.00000 319.00000 248.00000 48 39 29
273.00000 319.00000 252.00000 43 34 24
273.00000 323.00000 240.00000 35 26 18
273.00000 323.00000 244.00000 37 28 20
273.00000 327.00000 240.00000 26 17 7
273.00000 327.00000 244.00000 24 15 7
277.00000 323.00000 240.00000 18 9 1
277.00000 327.00000 240.00000 12 3 0
277.00000 327.00000 244.00000 14 5 0
273.00000 323.00000 248.00000 40 31 21
273.00000 323.00000 252.00000 39 30 20
273.00000 327.00000 248.00000 33 24 16
281.00000 323.00000 240.00000 11 2 0
281.00000 327.00000 240.00000 8 0 0
281.00000 327.00000 244.00000 9 0 0
285.00000 327.00000 240.00000 8 0 0
273.00000 343.00000 236.00000 16 10 4
277.00000 339.00000 232.00000 14 8 2
277.00000 339.00000 236.00000 14 7 1
277.00000 343.00000 232.00000 14 8 3
277.00000 343.00000 236.00000 15 9 3
285.00000 331.00000 224.00000 13 7 2
285.00000 331.00000 228.00000 12 6 1
285.00000 335.00000 224.00000 12 8 5
285.00000 335.00000 228.00000 13 7 2
281.00000 331.00000 236.00000 8 0 0
281.00000 335.00000 232.00000 11 5 0
281.00000 335.00000 236.00000 9 2 0
285.00000 331.00000 232.00000 9 3 0
285.00000 331.00000 236.00000 6 0 0
285.00000 335.00000 232.00000 10 4 0
285.00000 335.00000 236.00000 8 1 0
285.00000 339.00000 228.00000 10 6 3
285.00000 343.00000 228.00000 10 6 3
281.00000 339.00000 232.00000 11 5 0
281.00000 339.00000 236.00000 11 4 0
281.00000 343.00000 232.00000 13 7 2
285.00000 339.00000 232.00000 10 4 0
285.00000 343.00000 232.00000 10 6 3
273.00000 331.00000 244.00000 24 15 7
273.00000 335.00000 244.00000 21 14 6
277.00000 331.00000 244.00000 16 7 0
277.00000 335.00000 240.00000 13 4 0
277.00000 335.00000 244.00000 16 9 1
273.00000 331.00000 248.00000 28 19 11
273.00000 335.00000 248.00000 24 17 9
273.00000 335.00000 252.00000 24 17 9
273.00000 339.00000 244.00000 16 9 1
273.00000 343.00000 240.00000 15 9 3
273.00000 343.00000 244.00000 17 10 4
277.00000 339.00000 240.00000 14 7 1
277.00000 339.00000 244.00000 14 7 1
277.00000 343.00000 240.00000 13 7 1
277.00000 343.00000 244.00000 16 9 3
273.00000 339.00000 248.00000 22 15 7
273.00000 339.00000 252.00000 25 18 10
273.00000 343.00000 248.00000 19 12 6
273.00000 343.00000 252.00000 19 12 6
281.00000 331.00000 240.00000 8 0 0
281.00000 331.00000 244.00000 10 1 0
281.00000 335.00000 240.00000 11 2 0
281.00000 335.00000 244.00000 10 1 0
285.00000 331.00000 240.00000 8 0 0
281.00000 339.00000 240.00000 12 5 0
289.00000 327.00000 224.00000 13 7 2
289.00000 331.00000 224.00000 13 9 6
289.00000 335.00000 224.00000 11 7 4
289.00000 335.00000 228.00000 11 5 0
293.00000 331.00000 224.00000 11 7 4
293.00000 335.00000 224.00000 10 6 5
289.00000 339.00000 224.00000 9 5 4
289.00000 339.00000 228.00000 9 5 2
289.00000 343.00000 224.00000 7 5 3
289.00000 343.00000 228.00000 9 5 2
293.00000 339.00000 224.00000 8 6 4
293.00000 343.00000 224.00000 6 4 4
285.00000 355.00000 220.00000 4 2 2
285.00000 359.00000 220.00000 4 2 2
273.00000 375.00000 220.00000 7 3 0
281.00000 363.00000 220.00000 5 3 1
285.00000 363.00000 220.00000 4 2 0
289.00000 347.00000 220.00000 3 1 1
289.00000 351.00000 220.00000 3 1 1
293.00000 347.00000 216.00000 4 2 2
293.00000 347.00000 220.00000 3 1 1
293.00000 351.00000 216.00000 3 1 1
293.00000 351.00000 220.00000 3 1 1
289.00000 355.00000 220.00000 4 2 2
289.00000 359.00000 220.00000 4 2 2
293.00000 355.00000 220.00000 3 1 1
297.00000 347.00000 216.00000 3 1 1
297.00000 347.00000 220.00000 3 1 1
297.00000 351.00000 216.00000 3 1 1
297.00000 351.00000 220.00000 3 1 1
301.00000 347.00000 216.00000 1 1 1
301.00000 347.00000 220.00000 3 1 1
301.00000 351.00000 216.00000 1 1 1
301.00000 351.00000 220.00000 3 1 1
301.00000 355.00000 220.00000 3 1 1
289.00000 375.00000 212.00000 5 3 1
293.00000 371.00000 212.00000 5 3 1
293.00000 375.00000 212.00000 5 3 1
293.00000 371.00000 216.00000 4 2 0
297.00000 367.00000 212.00000 4 2 0
301.00000 367.00000 212.00000 4 2 2
297.00000 367.00000 216.00000 4 2 2
301.00000 363.00000 216.00000 4 2 2
301.00000 367.00000 216.00000 4 2 2
297.00000 371.00000 212.00000 4 2 0
297.00000 371.00000 216.00000 4 2 0
273.00000 347.00000 232.00000 17 11 6
273.00000 347.00000 236.00000 16 10 5
273.00000 351.00000 232.00000 13 10 4
273.00000 351.00000 236.00000 16 10 5
277.00000 347.00000 232.00000 15 9 4
277.00000 347.00000 236.00000 15 9 4
277.00000 351.00000 232.00000 13 9 6
273.00000 359.00000 228.00000 8 4 1
273.00000 355.00000 232.00000 11 7 4
273.00000 359.00000 232.00000 9 5 2
277.00000 355.00000 232.00000 11 7 4
277.00000 359.00000 232.00000 9 5 2
285.00000 347.00000 228.00000 11 7 6
285.00000 351.00000 228.00000 7 5 3
281.00000 347.00000 232.00000 11 7 4
281.00000 351.00000 232.00000 10 6 3
285.00000 347.00000 232.00000 10 6 3
285.00000 351.00000 232.00000 8 6 4
281.00000 359.00000 224.00000 4 2 0
281.00000 359.00000 228.00000 5 3 1
285.00000 355.00000 224.00000 4 2 0
285.00000 355.00000 228.00000 4 2 0
285.00000 359.00000 224.00000 4 2 0
285.00000 359.00000 228.00000 5 3 1
281.00000 355.00000 232.00000 9 5 2
281.00000 359.00000 232.00000 8 4 1
285.00000 355.00000 232.00000 6 4 2
285.00000 359.00000 232.00000 5 3 1
273.00000 347.00000 240.00000 17 11 5
273.00000 347.00000 244.00000 16 10 4
273.00000 351.00000 240.00000 16 10 5
273.00000 347.00000 248.00000 16 10 4
273.00000 347.00000 252.00000 13 7 1
273.00000 363.00000 228.00000 7 3 0
273.00000 367.00000 228.00000 7 3 0
277.00000 363.00000 228.00000 8 4 1
277.00000 367.00000 224.00000 5 3 1
277.00000 367.00000 228.00000 7 3 0
273.00000 363.00000 232.00000 7 3 0
273.00000 367.00000 232.00000 7 3 0
277.00000 363.00000 232.00000 7 3 0
277.00000 367.00000 232.00000 7 3 0
273.00000 371.00000 224.00000 7 3 0
273.00000 371.00000 228.00000 7 3 0
273.00000 375.00000 224.00000 7 3 0
277.00000 371.00000 224.00000 7 3 0
277.00000 371.00000 228.00000 7 3 0
277.00000 375.00000 224.00000 7 3 0
281.00000 363.00000 224.00000 4 2 0
281.00000 363.00000 228.00000 7 3 0
281.00000 367.00000 224.00000 6 2 1
281.00000 367.00000 228.00000 6 2 0
285.00000 363.00000 224.00000 4 2 0
281.00000 363.00000 232.00000 7 3 0
281.00000 371.00000 224.00000 7 3 0
289.00000 347.00000 224.00000 5 3 3
289.00000 347.00000 228.00000 8 6 4
289.00000 351.00000 224.00000 4 2 2
289.00000 351.00000 228.00000 4 2 2
293.00000 347.00000 224.00000 5 3 3
293.00000 351.00000 228.00000 3 1 1
289.00000 355.00000 224.00000 4 2 2
289.00000 355.00000 228.00000 4 2 2
293.00000 355.00000 224.00000 3 1 1
293.00000 359.00000 224.00000 3 1 1
297.00000 351.00000 224.00000 3 1 1
297.00000 351.00000 228.00000 3 1 1
301.00000 351.00000 224.00000 3 1 1
301.00000 351.00000 228.00000 3 1 1
297.00000 355.00000 224.00000 3 1 1
297.00000 355.00000 228.00000 3 1 1
297.00000 359.00000 228.00000 3 1 1
293.00000 363.00000 224.00000 3 1 1
297.00000 363.00000 224.00000 3 1 1
205.00000 247.00000 256.00000 111 84 50
205.00000 247.00000 260.00000 111 84 50
205.00000 247.00000 272.00000 103 76 40
205.00000 247.00000 276.00000 104 77 41
205.00000 247.00000 284.00000 108 81 45
205.00000 247.00000 288.00000 110 83 47
205.00000 247.00000 292.00000 112 83 48
209.00000 247.00000 256.00000 112 85 51
209.00000 247.00000 260.00000 113 86 52
213.00000 243.00000 256.00000 114 87 53
213.00000 243.00000 260.00000 115 88 54
213.00000 247.00000 256.00000 114 87 53
213.00000 247.00000 260.00000 113 86 52
209.00000 247.00000 264.00000 111 84 50
209.00000 247.00000 268.00000 108 81 45
213.00000 243.00000 264.00000 113 86 52
213.00000 243.00000 268.00000 112 85 51
213.00000 247.00000 264.00000 112 85 51
213.00000 247.00000 268.00000 108 81 47
221.00000 239.00000 260.00000 123 94 63
221.00000 239.00000 264.00000 121 92 61
221.00000 239.00000 268.00000 119 90 57
217.00000 243.00000 256.00000 118 91 59
217.00000 243.00000 260.00000 118 89 56
221.00000 243.00000 256.00000 122 95 63
221.00000 243.00000 260.00000 121 92 61
217.00000 243.00000 264.00000 115 88 54
217.00000 243.00000 268.00000 114 87 53
217.00000 247.00000 268.00000 113 86 52
221.00000 243.00000 264.00000 120 91 58
221.00000 243.00000 268.00000 118 89 56
213.00000 235.00000 284.00000 109 82 46
213.00000 239.00000 284.00000 109 82 46
209.00000 243.00000 272.00000 106 79 43
209.00000 243.00000 276.00000 105 78 42
209.00000 247.00000 272.00000 106 79 43
209.00000 247.00000 276.00000 105 78 42
213.00000 243.00000 272.00000 106 79 43
213.00000 243.00000 276.00000 106 79 43
213.00000 247.00000 272.00000 107 80 44
209.00000 243.00000 280.00000 107 80 44
209.00000 243.00000 284.00000 108 81 45
209.00000 247.00000 280.00000 107 80 44
209.00000 247.00000 284.00000 109 82 46
213.00000 243.00000 280.00000 107 80 44
213.00000 243.00000 284.00000 108 81 45
217.00000 239.00000 272.00000 113 84 51
217.00000 239.00000 276.00000 113 84 51
221.00000 239.00000 272.00000 114 85 52
221.00000 239.00000 276.00000 112 83 50
217.00000 235.00000 284.00000 116 87 52
217.00000 239.00000 280.00000 114 85 52
217.00000 239.00000 284.00000 114 85 52
221.00000 235.00000 284.00000 120 91 58
221.00000 239.00000 280.00000 113 84 51
221.00000 239.00000 284.00000 117 88 55
217.00000 243.00000 272.00000 115 86 53
217.00000 243.00000 276.00000 110 83 49
221.00000 243.00000 272.00000 117 88 55
217.00000 243.00000 280.00000 111 84 50
217.00000 243.00000 284.00000 110 83 47
221.00000 243.00000 280.00000 113 84 51
225.00000 239.00000 264.00000 123 96 64
225.00000 239.00000 268.00000 121 94 62
225.00000 243.00000 256.00000 125 98 66
225.00000 243.00000 260.00000 126 99 67
229.00000 243.00000 256.00000 129 101 72
229.00000 243.00000 260.00000 127 100 68
225.00000 243.00000 264.00000 124 97 65
225.00000 243.00000 268.00000 122 95 63
229.00000 243.00000 264.00000 128 101 69
229.00000 243.00000 268.00000 125 98 66
233.00000 243.00000 256.00000 131 103 74
233.00000 243.00000 260.00000 131 103 74
233.00000 247.00000 256.00000 132 104 75
233.00000 247.00000 260.00000 134 106 77
237.00000 247.00000 256.00000 136 108 79
237.00000 247.00000 260.00000 138 110 82
233.00000 243.00000 264.00000 129 101 72
233.00000 243.00000 268.00000 128 100 71
233.00000 247.00000 264.00000 133 105 76
233.00000 247.00000 268.00000 132 104 75
237.00000 243.00000 264.00000 134 106 77
237.00000 243.00000 268.00000 132 104 75
237.00000 247.00000 264.00000 135 107 78
237.00000 247.00000 268.00000 133 108 78
225.00000 239.00000 272.00000 117 90 56
225.00000 239.00000 276.00000 115 86 53
225.00000 235.00000 284.00000 119 90 57
225.00000 239.00000 280.00000 113 84 51
225.00000 239.00000 284.00000 111 82 49
229.00000 239.00000 284.00000 109 80 47
225.00000 243.00000 272.00000 117 90 56
225.00000 243.00000 276.00000 115 88 54
229.00000 243.00000 272.00000 121 94 62
229.00000 243.00000 276.00000 118 91 57
225.00000 243.00000 280.00000 114 85 52
225.00000 243.00000 284.00000 112 83 50
229.00000 243.00000 280.00000 118 91 57
229.00000 243.00000 284.00000 112 85 51
233.00000 243.00000 272.00000 125 98 66
233.00000 243.00000 276.00000 125 98 66
233.00000 247.00000 272.00000 128 100 71
237.00000 243.00000 272.00000 131 103 74
237.00000 243.00000 276.00000 130 102 73
237.00000 247.00000 272.00000 131 103 74
233.00000 243.00000 280.00000 128 101 69
233.00000 243.00000 284.00000 131 104 72
237.00000 243.00000 280.00000 132 107 77
237.00000 243.00000 284.00000 139 112 80
213.00000 231.00000 288.00000 122 93 60
213.00000 231.00000 292.00000 142 113 80
213.00000 231.00000 296.00000 148 119 86
217.00000 231.00000 288.00000 136 107 74
217.00000 231.00000 292.00000 155 126 93
221.00000 231.00000 288.00000 131 102 69
221.00000 231.00000 292.00000 160 131 98
217.00000 231.00000 296.00000 156 127 94
221.00000 231.00000 296.00000 168 139 106
209.00000 239.00000 288.00000 114 87 51
209.00000 239.00000 292.00000 120 93 59
213.00000 235.00000 288.00000 125 96 63
213.00000 235.00000 292.00000 135 106 73
213.00000 239.00000 288.00000 121 92 59
213.00000 239.00000 292.00000 131 102 69
213.00000 235.00000 296.00000 136 107 74
213.00000 235.00000 300.00000 137 110 76
213.00000 239.00000 296.00000 134 107 73
213.00000 239.00000 300.00000 134 107 73
209.00000 243.00000 288.00000 114 87 53
209.00000 243.00000 292.00000 118 91 57
209.00000 247.00000 288.00000 111 84 48
209.00000 247.00000 292.00000 114 87 53
213.00000 243.00000 288.00000 111 84 48
213.00000 243.00000 292.00000 119 92 58
213.00000 247.00000 292.00000 113 86 52
209.00000 247.00000 296.00000 114 87 51
209.00000 247.00000 300.00000 120 93 59
213.00000 243.00000 296.00000 128 101 67
213.00000 243.00000 300.00000 129 102 68
213.00000 247.00000 296.00000 117 90 56
213.00000 247.00000 300.00000 124 97 63
217.00000 235.00000 288.00000 118 89 56
217.00000 239.00000 288.00000 129 100 67
221.00000 235.00000 288.00000 132 103 70
221.00000 235.00000 292.00000 156 127 94
217.00000 235.00000 296.00000 150 121 88
217.00000 235.00000 300.00000 151 122 89
217.00000 239.00000 300.00000 143 114 81
221.00000 235.00000 296.00000 155 126 93
221.00000 235.00000 300.00000 160 131 98
221.00000 239.00000 296.00000 161 132 99
221.00000 239.00000 300.00000 150 121 88
217.00000 243.00000 300.00000 135 108 74
213.00000 239.00000 304.00000 130 103 69
213.00000 243.00000 304.00000 127 100 66
213.00000 243.00000 308.00000 128 101 67
213.00000 247.00000 304.00000 123 96 62
213.00000 247.00000 308.00000 127 100 66
217.00000 239.00000 304.00000 140 113 79
217.00000 239.00000 308.00000 137 110 76
221.00000 239.00000 304.00000 152 123 90
221.00000 239.00000 308.00000 145 116 83
217.00000 243.00000 304.00000 135 108 74
217.00000 243.00000 308.00000 133 106 72
217.00000 247.00000 304.00000 129 102 68
217.00000 247.00000 308.00000 131 104 70
221.00000 243.00000 308.00000 144 115 82
221.00000 247.00000 308.00000 140 111 78
217.00000 243.00000 312.00000 130 103 71
217.00000 247.00000 312.00000 135 108 76
217.00000 247.00000 316.00000 132 105 73
221.00000 243.00000 312.00000 139 110 77
221.00000 247.00000 312.00000 143 114 81
221.00000 247.00000 316.00000 142 113 82
225.00000 235.00000 288.00000 122 93 60
225.00000 235.00000 292.00000 145 116 83
225.00000 239.00000 288.00000 136 107 74
225.00000 239.00000 292.00000 150 121 88
229.00000 239.00000 288.00000 127 98 65
229.00000 239.00000 292.00000 149 120 87
225.00000 235.00000 296.00000 162 133 100
225.00000 239.00000 296.00000 156 127 94
225.00000 239.00000 300.00000 156 127 94
229.00000 239.00000 296.00000 156 127 94
229.00000 243.00000 288.00000 132 105 71
229.00000 243.00000 292.00000 148 121 87
225.00000 243.00000 296.00000 162 133 100
225.00000 243.00000 300.00000 159 130 97
229.00000 243.00000 296.00000 164 135 102
229.00000 243.00000 300.00000 161 132 99
229.00000 247.00000 296.00000 170 141 108
229.00000 247.00000 300.00000 165 136 103
233.00000 243.00000 288.00000 148 121 87
233.00000 243.00000 292.00000 158 131 97
233.00000 247.00000 292.00000 163 136 104
237.00000 243.00000 288.00000 153 126 94
237.00000 243.00000 292.00000 159 132 100
237.00000 247.00000 288.00000 160 135 105
237.00000 247.00000 292.00000 165 137 108
233.00000 243.00000 296.00000 162 133 100
233.00000 247.00000 296.00000 167 138 105
233.00000 247.00000 300.00000 165 136 103
237.00000 247.00000 296.00000 168 143 113
237.00000 247.00000 300.00000 166 139 107
225.00000 239.00000 304.00000 152 123 90
225.00000 239.00000 308.00000 147 118 85
225.00000 243.00000 304.00000 153 124 91
225.00000 243.00000 308.00000 150 121 88
225.00000 247.00000 304.00000 153 124 91
225.00000 247.00000 308.00000 149 120 87
229.00000 243.00000 304.00000 157 128 95
229.00000 247.00000 304.00000 158 129 96
229.00000 247.00000 308.00000 153 124 91
225.00000 247.00000 312.00000 151 122 89
225.00000 247.00000 316.00000 150 121 90
229.00000 247.00000 312.00000 154 125 94
229.00000 247.00000 316.00000 120 91 58
233.00000 247.00000 304.00000 161 132 101
233.00000 247.00000 308.00000 161 132 101
237.00000 247.00000 304.00000 164 137 105
237.00000 247.00000 308.00000 151 122 91
233.00000 247.00000 312.00000 112 83 50
233.00000 247.00000 316.00000 59 28 0
237.00000 247.00000 312.00000 127 98 67
237.00000 247.00000 316.00000 89 58 25
217.00000 247.00000 320.00000 155 126 93
217.00000 247.00000 324.00000 167 140 108
221.00000 247.00000 320.00000 163 134 101
221.00000 247.00000 324.00000 171 142 109
217.00000 247.00000 328.00000 187 158 125
217.00000 247.00000 332.00000 209 180 147
221.00000 247.00000 328.00000 183 154 121
221.00000 247.00000 332.00000 198 167 132
221.00000 247.00000 336.00000 198 166 131
225.00000 247.00000 320.00000 155 124 89
225.00000 247.00000 324.00000 173 141 106
229.00000 247.00000 320.00000 128 97 64
229.00000 247.00000 324.00000 160 128 91
225.00000 247.00000 328.00000 184 152 115
225.00000 247.00000 332.00000 191 156 118
229.00000 247.00000 328.00000 182 146 108
229.00000 247.00000 332.00000 184 148 108
233.00000 243.00000 324.00000 163 127 89
233.00000 247.00000 320.00000 88 57 24
233.00000 247.00000 324.00000 159 124 88
237.00000 247.00000 320.00000 78 47 14
237.00000 247.00000 324.00000 134 99 63
233.00000 243.00000 328.00000 171 135 95
233.00000 247.00000 328.00000 179 141 101
233.00000 247.00000 332.00000 181 141 98
237.00000 247.00000 328.00000 174 136 96
237.00000 247.00000 332.00000 178 140 99
225.00000 247.00000 336.00000 191 156 118
229.00000 247.00000 336.00000 184 148 108
233.00000 247.00000 336.00000 181 143 102
237.00000 247.00000 336.00000 179 141 100
241.00000 247.00000 256.00000 137 112 83
241.00000 247.00000 260.00000 137 112 83
245.00000 247.00000 256.00000 137 112 83
245.00000 247.00000 260.00000 137 112 83
241.00000 247.00000 264.00000 137 112 83
241.00000 247.00000 268.00000 136 111 82
245.00000 247.00000 264.00000 137 112 83
245.00000 247.00000 268.00000 137 112 83
249.00000 247.00000 264.00000 137 112 83
249.00000 247.00000 268.00000 137 112 83
241.00000 243.00000 272.00000 133 108 79
241.00000 243.00000 276.00000 137 112 83
241.00000 247.00000 272.00000 135 110 81
241.00000 247.00000 276.00000 138 113 84
245.00000 247.00000 272.00000 134 111 84
245.00000 247.00000 276.00000 133 110 81
241.00000 243.00000 280.00000 144 119 90
241.00000 243.00000 284.00000 147 122 92
241.00000 247.00000 280.00000 142 117 88
241.00000 247.00000 284.00000 150 125 96
245.00000 243.00000 280.00000 142 119 90
245.00000 243.00000 284.00000 148 125 96
245.00000 247.00000 280.00000 138 115 86
245.00000 247.00000 284.00000 157 134 107
249.00000 247.00000 272.00000 136 113 86
249.00000 247.00000 276.00000 136 113 86
253.00000 247.00000 272.00000 137 114 87
253.00000 247.00000 276.00000 140 117 92
249.00000 247.00000 280.00000 143 120 93
249.00000 247.00000 284.00000 159 136 109
253.00000 247.00000 280.00000 147 125 100
253.00000 247.00000 284.00000 155 133 108
257.00000 247.00000 276.00000 145 122 97
257.00000 247.00000 280.00000 149 126 101
257.00000 247.00000 284.00000 154 132 107
241.00000 243.00000 288.00000 167 142 113
241.00000 243.00000 292.00000 169 144 114
241.00000 247.00000 288.00000 165 140 111
241.00000 247.00000 292.00000 173 148 119
245.00000 243.00000 288.00000 166 143 114
245.00000 243.00000 292.00000 172 149 120
245.00000 247.00000 288.00000 171 148 119
245.00000 247.00000 292.00000 183 160 133
241.00000 247.00000 296.00000 175 150 121
241.00000 247.00000 300.00000 172 147 117
245.00000 247.00000 296.00000 178 153 124
245.00000 247.00000 300.00000 173 148 118
249.00000 243.00000 288.00000 168 145 118
249.00000 243.00000 292.00000 172 149 122
249.00000 247.00000 288.00000 165 142 115
249.00000 247.00000 292.00000 168 145 118
253.00000 247.00000 288.00000 163 141 116
253.00000 247.00000 292.00000 166 144 119
249.00000 247.00000 296.00000 171 148 121
249.00000 247.00000 300.00000 165 142 115
253.00000 247.00000 296.00000 166 143 116
253.00000 247.00000 300.00000 159 136 111
241.00000 247.00000 304.00000 165 137 108
241.00000 247.00000 308.00000 162 134 105
245.00000 247.00000 304.00000 168 143 114
245.00000 247.00000 308.00000 144 116 87
241.00000 247.00000 312.00000 105 78 46
241.00000 247.00000 316.00000 41 12 0
245.00000 247.00000 312.00000 114 87 55
245.00000 247.00000 316.00000 94 65 34
249.00000 247.00000 304.00000 166 141 112
249.00000 247.00000 308.00000 147 122 92
253.00000 247.00000 304.00000 162 139 112
249.00000 247.00000 312.00000 131 103 74
249.00000 247.00000 316.00000 139 111 82
257.00000 247.00000 288.00000 160 138 113
257.00000 247.00000 292.00000 163 141 116
257.00000 247.00000 300.00000 161 138 111
241.00000 243.00000 324.00000 145 113 78
241.00000 247.00000 320.00000 73 44 13
241.00000 247.00000 324.00000 136 104 69
245.00000 243.00000 324.00000 136 104 69
245.00000 247.00000 320.00000 100 71 40
245.00000 247.00000 324.00000 125 94 61
241.00000 247.00000 328.00000 167 131 93
241.00000 247.00000 332.00000 176 138 98
245.00000 247.00000 328.00000 155 120 84
245.00000 247.00000 332.00000 165 130 92
249.00000 247.00000 320.00000 120 91 60
249.00000 247.00000 324.00000 122 91 58
253.00000 247.00000 320.00000 122 93 62
253.00000 247.00000 324.00000 130 99 66
249.00000 247.00000 328.00000 157 122 86
249.00000 247.00000 332.00000 168 133 97
253.00000 247.00000 328.00000 147 115 80
241.00000 247.00000 336.00000 177 139 99
189.00000 263.00000 272.00000 136 118 80
189.00000 263.00000 276.00000 135 117 77
189.00000 259.00000 280.00000 141 123 81
189.00000 259.00000 284.00000 144 126 84
189.00000 263.00000 280.00000 140 122 80
189.00000 263.00000 284.00000 142 124 82
189.00000 267.00000 260.00000 115 98 64
189.00000 271.00000 256.00000 91 78 45
189.00000 271.00000 260.00000 106 91 57
185.00000 271.00000 268.00000 107 93 56
189.00000 267.00000 264.00000 117 100 64
189.00000 267.00000 268.00000 121 104 68
189.00000 271.00000 264.00000 115 98 62
189.00000 271.00000 268.00000 115 98 62
185.00000 275.00000 260.00000 75 64 31
185.00000 279.00000 260.00000 68 57 24
189.00000 275.00000 256.00000 82 69 36
189.00000 275.00000 260.00000 85 72 39
189.00000 279.00000 256.00000 72 61 28
189.00000 279.00000 260.00000 72 61 28
185.00000 275.00000 264.00000 82 69 36
185.00000 275.00000 268.00000 103 89 52
185.00000 279.00000 264.00000 69 58 25
185.00000 279.00000 268.00000 75 64 29
189.00000 275.00000 264.00000 102 87 53
189.00000 275.00000 268.00000 107 93 56
181.00000 279.00000 272.00000 73 62 25
181.00000 279.00000 276.00000 80 67 28
181.00000 275.00000 284.00000 92 78 33
181.00000 279.00000 280.00000 85 71 30
181.00000 279.00000 284.00000 89 75 32
185.00000 267.00000 276.00000 129 111 71
185.00000 271.00000 272.00000 107 93 56
185.00000 271.00000 276.00000 120 103 63
189.00000 267.00000 272.00000 125 108 70
189.00000 267.00000 276.00000 130 112 72
189.00000 271.00000 272.00000 119 102 66
189.00000 271.00000 276.00000 119 102 64
185.00000 267.00000 280.00000 125 107 65
185.00000 267.00000 284.00000 133 115 71
185.00000 271.00000 280.00000 113 97 54
185.00000 271.00000 284.00000 124 106 62
189.00000 267.00000 280.00000 136 118 76
189.00000 267.00000 284.00000 137 119 77
185.00000 275.00000 272.00000 96 82 45
185.00000 275.00000 276.00000 93 79 40
185.00000 279.00000 272.00000 83 70 31
185.00000 279.00000 276.00000 80 67 28
185.00000 275.00000 280.00000 98 84 41
185.00000 275.00000 284.00000 95 81 38
185.00000 279.00000 280.00000 85 71 30
185.00000 279.00000 284.00000 89 75 32
193.00000 263.00000 260.00000 117 100 66
197.00000 259.00000 256.00000 112 91 58
197.00000 259.00000 260.00000 118 97 64
197.00000 263.00000 256.00000 113 94 61
197.00000 263.00000 260.00000 122 103 70
193.00000 263.00000 264.00000 123 104 71
193.00000 263.00000 268.00000 130 112 74
197.00000 259.00000 264.00000 125 106 73
197.00000 259.00000 268.00000 124 103 68
197.00000 263.00000 264.00000 124 105 72
197.00000 263.00000 268.00000 128 110 74
201.00000 255.00000 256.00000 111 88 56
201.00000 255.00000 260.00000 113 88 54
205.00000 251.00000 256.00000 112 85 51
205.00000 251.00000 260.00000 112 85 51
205.00000 255.00000 256.00000 112 87 53
205.00000 255.00000 260.00000 112 87 53
201.00000 255.00000 264.00000 114 92 57
201.00000 255.00000 268.00000 112 90 55
205.00000 251.00000 264.00000 111 84 50
205.00000 251.00000 268.00000 109 82 48
205.00000 255.00000 264.00000 112 87 53
205.00000 255.00000 268.00000 108 83 49
201.00000 259.00000 256.00000 115 94 61
201.00000 259.00000 260.00000 116 95 62
201.00000 263.00000 256.00000 116 95 62
201.00000 259.00000 264.00000 116 94 59
201.00000 259.00000 268.00000 118 96 61
197.00000 255.00000 272.00000 121 99 62
197.00000 255.00000 276.00000 128 107 70
193.00000 255.00000 284.00000 140 120 78
197.00000 255.00000 280.00000 133 111 72
197.00000 255.00000 284.00000 136 116 76
193.00000 259.00000 276.00000 136 116 76
193.00000 263.00000 272.00000 129 111 73
193.00000 263.00000 276.00000 136 116 76
197.00000 259.00000 272.00000 127 106 69
197.00000 259.00000 276.00000 134 114 74
197.00000 263.00000 272.00000 128 110 74
197.00000 263.00000 276.00000 132 114 76
193.00000 259.00000 280.00000 139 119 79
193.00000 259.00000 284.00000 139 119 79
193.00000 263.00000 280.00000 138 118 78
197.00000 259.00000 280.00000 136 116 76
197.00000 259.00000 284.00000 138 118 78
201.00000 251.00000 276.00000 118 96 59
201.00000 255.00000 272.00000 114 89 53
201.00000 255.00000 276.00000 118 93 57
205.00000 251.00000 272.00000 106 79 43
205.00000 251.00000 276.00000 113 88 52
205.00000 255.00000 272.00000 109 82 46
205.00000 255.00000 276.00000 110 83 47
201.00000 251.00000 280.00000 119 94 58
201.00000 251.00000 284.00000 125 101 62
201.00000 255.00000 280.00000 125 103 64
201.00000 255.00000 284.00000 129 107 68
205.00000 251.00000 280.00000 114 87 51
205.00000 251.00000 284.00000 116 91 55
205.00000 255.00000 280.00000 112 87 51
201.00000 259.00000 272.00000 121 100 65
193.00000 267.00000 256.00000 112 95 63
193.00000 267.00000 260.00000 114 97 65
193.00000 271.00000 256.00000 98 83 51
193.00000 271.00000 260.00000 105 90 58
197.00000 267.00000 256.00000 117 100 68
197.00000 267.00000 260.00000 123 106 74
193.00000 267.00000 264.00000 119 102 68
193.00000 267.00000 268.00000 121 104 68
193.00000 271.00000 264.00000 115 98 64
193.00000 271.00000 268.00000 120 103 67
197.00000 267.00000 264.00000 122 105 71
197.00000 267.00000 268.00000 124 106 70
193.00000 275.00000 256.00000 79 65 34
193.00000 279.00000 256.00000 79 66 33
193.00000 267.00000 272.00000 128 110 72
193.00000 267.00000 276.00000 132 114 76
193.00000 271.00000 272.00000 122 105 69
189.00000 259.00000 288.00000 152 132 90
